# .PCD v0.7 - Point Cloud Data file format
VERSION 0.7
FIELDS x y z
SIZE 4 4 4
TYPE F F F
COUNT 1 1 1
WIDTH 1492
HEIGHT 1
VIEWPOINT 0 0 0 1 0 0 0
POINTS 1492
DATA ascii
-0.054685935 0.34448206 2.2728343
-0.068283357 0.37546745 2.2641125
-0.056949466 0.36447659 2.2779787
-0.075910777 0.40495652 2.2645948
-0.090206459 0.4369455 2.2551615
-0.080844194 0.43453187 2.2695684
-0.095162526 0.46587351 2.2598207
-0.08531487 0.46355224 2.2750633
-0.099446148 0.49449703 2.2654481
-0.10758702 0.52470398 2.2654049
-0.1239162 0.55762714 2.253022
-0.11423586 0.554241 2.2675247
-0.12783585 0.58581907 2.2590604
-0.11778593 0.58326334 2.274544
-0.13264446 0.6152069 2.2641599
-0.15197305 0.6585499 2.2514527
-0.13605025 0.64877719 2.2644129
-0.10484713 0.65456182 2.2669647
-0.073676348 0.65456176 2.266964
-0.045339283 0.65456176 2.2669644
-0.017002232 0.65456182 2.266964
0.014168526 0.6545617 2.2669644
0.04533929 0.65456176 2.2669642
0.07367634 0.6545617 2.266964
0.10484678 0.65455967 2.266957
0.13601743 0.65455973 2.266957
0.16435438 0.65455955 2.266957
0.19417199 0.65487194 2.2662542
0.22521514 0.65424746 2.2676604
0.25503269 0.65455967 2.2669575
0.28482214 0.65487188 2.2662539
0.31523231 0.65447861 2.2671402
0.34498164 0.65431392 2.2675109
0.37476242 0.65480435 2.2664053
0.40450284 0.65464211 2.2667723
0.43425724 0.65447849 2.2671406
0.4647187 0.65455836 2.2669592
0.49517372 0.65464211 2.2667723
0.52494282 0.65447843 2.2671402
0.55539703 0.65455842 2.266959
0.58584458 0.65464211 2.2667725
0.61490244 0.65455955 2.266957
0.64468259 0.65471566 2.2666054
0.67511326 0.65431392 2.2675111
0.70485014 0.65464211 2.266772
0.73534691 0.65471572 2.2666056
0.76508361 0.65455967 2.266957
0.79483443 0.65440369 2.2673094
0.82459605 0.65455973 2.266957
0.85434353 0.65471572 2.2666051
0.8848356 0.65464211 2.2667723
0.91454899 0.65431386 2.2675111
0.94500786 0.6547156 2.2666051
0.97477704 0.65455979 2.2669575
1.0045606 0.65440369 2.2673092
1.034978 0.65480423 2.2664056
1.0647311 0.65447861 2.2671399
1.0945121 0.65464205 2.2667723
1.1249604 0.65455836 2.2669587
1.1554167 0.65447843 2.2671399
1.1851828 0.65464222 2.266772
1.2149342 0.65480435 2.2664053
1.2446805 0.65431374 2.2675109
1.2751466 0.65456086 2.2669551
1.3055904 0.65480435 2.2664053
1.3346469 0.65455961 2.266957
1.3644423 0.65424758 2.2676606
1.3955297 0.65487182 2.2662539
1.4253253 0.65455967 2.266957
1.4544253 0.6543138 2.2675109
1.4854913 0.65478426 2.2664514
1.5160035 0.65455979 2.2669575
1.5443404 0.65455979 2.266957
1.5748795 0.65433633 2.2674608
1.6058891 0.65480411 2.2664053
1.6350187 0.65455967 2.266957
1.6633557 0.65455961 2.2669573
1.6945266 0.65455961 2.266957
1.7256972 0.65455979 2.2669573
1.754034 0.65455979 2.266957
1.7845578 0.65478426 2.2664518
1.8079368 0.65136975 2.2741446
0.42568797 -1.3806096 2.3010161
0.41482377 -1.3640575 2.2904093
0.42413136 -1.3657442 2.3050513
0.40860903 -1.3343213 2.2933431
0.42128849 -1.3475444 2.3084302
0.40158701 -1.3050963 2.2947123
0.38769764 -1.2726258 2.2861686
0.39744285 -1.2762728 2.3006523
0.38186044 -1.242298 2.2899868
0.39147273 -1.249245 2.3027806
0.37792286 -1.216333 2.2950015
0.35952124 -1.1755731 2.2826746
0.37132215 -1.1877894 2.2967641
0.3541303 -1.1509154 2.2847118
0.36418092 -1.1562544 2.298959
0.35218418 -1.1244797 2.2932305
0.36347994 -1.1337097 2.3078094
0.3452284 -1.0953531 2.2946637
0.33775169 -1.0660727 2.2953064
0.32482475 -1.0335661 2.2883759
0.33532649 -1.0404975 2.3026481
0.32091939 -1.0046557 2.2947505
0.31330225 -0.9754166 2.2951391
0.29693347 -0.93932939 2.2841036
0.30754772 -0.94822681 2.2977018
0.29438373 -0.91307718 2.2915437
0.30552602 -0.92233819 2.3058567
0.28892761 -0.88517141 2.2949123
0.30020544 -0.8948431 2.3092725
0.2807405 -0.85543364 2.2945807
0.2672486 -0.82316577 2.2866008
0.27768579 -0.82728064 2.3020303
0.26238376 -0.79400057 2.2915084
0.27196813 -0.79976064 2.3047945
0.25630456 -0.76563078 2.294054
0.23976673 -0.72786164 2.2834926
0.25046501 -0.73563898 2.2977171
0.23323923 -0.70065725 2.2847772
0.2437574 -0.70652837 2.2995574
0.23098935 -0.6728552 2.2934036
0.24226567 -0.68353367 2.3072922
0.22507696 -0.64566129 2.2957027
0.20531656 -0.60454321 2.2812951
0.21686511 -0.61726916 2.2947314
0.204064 -0.58356619 2.2885318
0.2145755 -0.58754587 2.3041434
0.19965307 -0.55517459 2.2938449
0.19221956 -0.5249666 2.2949679
0.17718196 -0.48867109 2.2862189
0.18731402 -0.49674925 2.2993903
0.17312294 -0.46382445 2.2905483
0.18442683 -0.47258934 2.3053355
0.16902347 -0.43524608 2.2964587
0.14824475 -0.39341876 2.2806885
0.16070363 -0.40623054 2.2955925
0.14681156 -0.37177789 2.2879217
0.15679517 -0.37830251 2.3015304
0.14254451 -0.34321439 2.2935474
0.15299767 -0.34640902 2.3094058
0.13536534 -0.31542888 2.2940166
0.11985679 -0.28251794 2.2829866
0.12986451 -0.28536165 2.29827
0.11337327 -0.25055057 2.2864699
0.12261866 -0.25671089 2.2990105
0.10972186 -0.22350232 2.2924421
0.12110648 -0.23356083 2.3067899
0.10367185 -0.19439018 2.2953632
0.085578918 -0.15689307 2.2821045
0.096695155 -0.16775353 2.2956541
0.08358033 -0.13222279 2.2897542
0.093587324 -0.13820745 2.3036351
0.078533247 -0.10289006 2.2944338
0.071157321 -0.074582733 2.2948058
0.057143152 -0.042849153 2.2857258
0.066918559 -0.047037959 2.3000309
0.052987527 -0.015744191 2.2908888
0.063382946 -0.023043897 2.3048341
0.047845695 0.014351343 2.2957544
0.028518725 0.054187201 2.281498
0.039786227 0.045110095 2.296088
0.026459271 0.076510899 2.2880065
0.036180902 0.072361201 2.3022289
0.022578482 0.10515774 2.2943041
0.034627993 0.092341319 2.308533
0.014527245 0.13564353 2.2945282
0.0069045289 0.16643453 2.2956021
-0.0073432419 0.19672076 2.2854898
0.0025617261 0.19429742 2.3007905
-0.010568702 0.22486235 2.2926545
0 0.21621618 2.3062882
-0.01719108 0.2544536 2.294842
-0.034243878 0.29107732 2.2829251
-0.023378562 0.28480232 2.2980886
-0.03688392 0.31611028 2.2896721
-0.027839337 0.31489849 2.3040774
-0.041922785 0.34521347 2.2942612
-0.049695641 0.3747651 2.2945273
-0.063810103 0.40764058 2.2857914
-0.053482261 0.40261433 2.3006337
-0.067866944 0.43681616 2.2920423
-0.057641789 0.42943969 2.3056717
-0.074188739 0.4656902 2.2944071
-0.091344342 0.50524998 2.2836084
-0.080370098 0.49378642 2.296664
-0.094372042 0.52622426 2.2879155
-0.084190026 0.5217225 2.3027499
-0.098215781 0.55534089 2.2944944
-0.08655113 0.54238707 2.3080301
-0.10558197 0.58539152 2.2956591
-0.12187947 0.62274075 2.285301
-0.11259113 0.61294621 2.2963071
-0.1226211 0.63927966 2.2889929
-0.10398426 0.64180744 2.2947817
-0.074566849 0.64240885 2.2943642
-0.045887295 0.64240885 2.2943645
-0.017207732 0.64240885 2.2943642
0.014339779 0.64240885 2.2943645
0.045887295 0.64240879 2.2943645
0.074566849 0.64240879 2.2943645
0.1032464 0.64240885 2.2943642
0.13479392 0.64240879 2.2943645
0.16634144 0.64240885 2.2943642
0.19502099 0.64240885 2.2943645
0.22370055 0.64240885 2.2943645
0.25434962 0.6426158 2.2938974
0.2857784 0.64218897 2.2948606
0.31547514 0.64240885 2.2943642
0.34415469 0.64240885 2.2943642
0.37382558 0.64262837 2.2938697
0.40437523 0.64240915 2.2943625
0.43494439 0.64218891 2.2948608
0.46460882 0.64240879 2.2943645
0.49425375 0.64262837 2.2938695
0.52482927 0.64240909 2.2943625
0.55542457 0.64218885 2.2948608
0.58506292 0.64240879 2.2943645
0.6146819 0.64262825 2.2938695
0.64528328 0.64240909 2.2943621
0.67491895 0.64240879 2.2943647
0.70459062 0.64218897 2.2948606
0.73511004 0.64262825 2.2938695
0.76478159 0.64240885 2.2943642
0.79441684 0.64240915 2.2943623
0.82405257 0.64240885 2.2943642
0.85464436 0.64240855 2.2943656
0.88523579 0.64240879 2.2943645
0.91487092 0.64240909 2.2943625
0.94450676 0.64240885 2.2943642
0.97509855 0.64240855 2.2943656
1.0056899 0.64240879 2.2943645
1.0353249 0.64240909 2.2943625
1.0649608 0.64240879 2.2943645
1.0945957 0.64262831 2.2938695
1.1251888 0.64218885 2.2948608
1.1548237 0.64240879 2.2943645
1.1844585 0.64240909 2.2943628
1.2150239 0.64262831 2.2938697
1.2446795 0.64240879 2.2943645
1.2743548 0.64218891 2.2948608
1.3049126 0.64240909 2.2943625
1.3354522 0.64262831 2.2938695
1.3651336 0.64240879 2.2943645
1.3938133 0.64240885 2.2943642
1.4244722 0.64220214 2.2948298
1.4558803 0.64262837 2.2938697
1.485588 0.64240879 2.2943645
1.5142673 0.64240879 2.2943645
1.5440011 0.64218891 2.2948608
1.5753579 0.6426158 2.2938967
1.606042 0.64240885 2.2943642
1.6347216 0.64240885 2.2943645
1.663401 0.64240885 2.2943642
1.6949484 0.64240873 2.2943642
1.726496 0.64240879 2.2943645
1.7551756 0.64240879 2.2943645
1.7838552 0.64240885 2.2943645
1.8136097 0.64240909 2.2943625
1.833214 0.63889086 2.3023095
0.44244066 -1.3886281 2.32516
0.45032308 -1.3860594 2.3393407
0.43537441 -1.364593 2.3241487
0.4158929 -1.3227705 2.3105161
0.42925078 -1.3354813 2.3269496
0.41570041 -1.3027314 2.3190882
0.42573211 -1.309252 2.3327789
0.41072154 -1.2732403 2.3239508
0.4205274 -1.2820227 2.3362632
0.40307859 -1.2447478 2.3239648
0.38785753 -1.2069811 2.3155673
0.39827925 -1.2166275 2.3285148
0.38398221 -1.184136 2.3193119
0.39337251 -1.184782 2.334543
0.37876061 -1.1540174 2.3240514
0.39172772 -1.1693364 2.3386729
0.3715446 -1.1253161 2.3248692
0.35690805 -1.0929015 2.3150625
0.36710396 -1.0954586 2.3307841
0.35185078 -1.0632586 2.3198633
0.36181068 -1.0679115 2.3342626
0.34727311 -1.0352262 2.3247406
0.32949579 -0.99715662 2.3122511
0.34022132 -1.0056531 2.3262117
0.32419604 -0.96968514 2.3156862
0.33417726 -0.97747386 2.3287306
0.32100195 -0.94263798 2.3224142
0.33297578 -0.95511305 2.3366723
0.31554547 -0.91478872 2.3257613
0.29452661 -0.87202972 2.3100126
0.30737069 -0.88485557 2.3255422
0.29404843 -0.85315329 2.317596
0.30414245 -0.85574555 2.3331332
0.29103065 -0.82471579 2.3252325
0.28198645 -0.79399836 2.3239188
0.26607689 -0.75773621 2.3137121
0.2771714 -0.76609969 2.3283448
0.26469719 -0.73427051 2.3218522
0.27432317 -0.74125171 2.3346655
0.25859657 -0.70600355 2.3243163
0.25109553 -0.67546898 2.3254714
0.23571244 -0.64013147 2.3157415
0.2466916 -0.64681846 2.3309126
0.23368387 -0.61342114 2.3242426
0.24553835 -0.62553817 2.3384604
0.22718258 -0.58535498 2.3259578
0.20805722 -0.54614854 2.3117471
0.21931252 -0.55613154 2.3259237
0.20644854 -0.52247834 2.319597
0.21694593 -0.52727348 2.3348262
0.20117676 -0.49472779 2.3232002
0.21025415 -0.49935192 2.3361573
0.19421673 -0.46497113 2.3249071
0.1794484 -0.43124658 2.3154631
0.18925789 -0.4367207 2.3292499
0.17302924 -0.40468806 2.3166437
0.18292959 -0.40666127 2.3321345
0.16971466 -0.37425885 2.3246756
0.1812401 -0.38586599 2.3385818
0.16190369 -0.34536064 2.3245988
0.14457546 -0.30649552 2.3132074
0.15524885 -0.31672373 2.3263125
0.1424363 -0.28291976 2.3201413
0.15274611 -0.28796872 2.3349473
0.13710292 -0.25558209 2.3234591
0.13048148 -0.22567004 2.3257952
0.1157791 -0.1939216 2.315582
0.12495949 -0.1964177 2.3296518
0.11146142 -0.16368175 2.3218701
0.12266973 -0.17232004 2.3365662
0.1058459 -0.13373484 2.3258836
0.08672218 -0.092503659 2.3125916
0.097937047 -0.10596649 2.3251336
0.084753215 -0.073153496 2.317919
0.094969757 -0.07830026 2.3325145
0.081814609 -0.045666255 2.3252654
0.093559057 -0.05847441 2.3389764
0.073211566 -0.017428432 2.3235793
0.057873935 0.020264277 2.3149574
0.068209849 0.012902702 2.3287783
0.054346245 0.047487687 2.3212142
0.064200521 0.040859446 2.3345647
0.048834518 0.075546481 2.3245564
0.041886259 0.10467363 2.3260038
0.027294315 0.13563484 2.3156221
0.037141982 0.13180804 2.3302045
0.023654548 0.16507983 2.3226802
0.035054628 0.15482631 2.3369751
0.01746597 0.19565594 2.3260269
0.0081541762 0.22662628 2.3243883
-0.0057876911 0.25756067 2.3150764
0.0037152125 0.25522161 2.3297482
-0.0094876345 0.28542686 2.3213339
0 0.28016683 2.3346856
-0.015091559 0.31382969 2.3246763
-0.034680862 0.3583689 2.3120575
-0.022514118 0.34415784 2.3258719
-0.03692928 0.37875608 2.3174012
-0.026642 0.37220863 2.3315003
-0.040650029 0.4066385 2.3236272
-0.029213704 0.39438671 2.3370965
-0.046861097 0.4350248 2.325963
-0.063610479 0.46840891 2.3131084
-0.053808983 0.46402186 2.3273532
-0.067249767 0.49573645 2.3192227
-0.05739617 0.49421299 2.3348262
-0.071794927 0.52467716 2.3245568
-0.079418756 0.5541234 2.3250265
-0.093605451 0.58674097 2.316051
-0.08333616 0.58282769 2.3312967
-0.097769797 0.61660594 2.3217497
-0.078472234 0.62190688 2.3316276
-0.046611782 0.62634069 2.3305895
-0.017479418 0.62634069 2.3305895
0.014566182 0.62634069 2.3305895
0.046611782 0.62634069 2.3305893
0.075744145 0.62634069 2.3305893
0.10487652 0.62634075 2.3305891
0.13400887 0.62634075 2.3305891
0.16314124 0.62634075 2.3305891
0.19382924 0.62650585 2.3302178
0.22567682 0.6261757 2.3309603
0.25636479 0.62634081 2.3305891
0.28549716 0.62634075 2.3305891
0.31462952 0.62634075 2.3305891
0.34376192 0.62634081 2.3305891
0.37442112 0.62650585 2.3302178
0.40493479 0.62634075 2.3305891
0.43546331 0.6261757 2.3309605
0.46611783 0.62634075 2.3305891
0.49525023 0.62634069 2.3305895
0.52438253 0.62634069 2.3305893
0.555013 0.62650573 2.3302183
0.58555543 0.62634069 2.3305893
0.61468774 0.62634075 2.3305891
0.64524966 0.6261757 2.3309603
0.67587084 0.62634075 2.3305891
0.70500326 0.62634075 2.3305893
0.73413557 0.62634069 2.3305893
0.76473266 0.62650585 2.3302178
0.79530847 0.62634075 2.3305891
0.82444078 0.62634069 2.3305893
0.85503614 0.62617564 2.3309608
0.88562393 0.62634069 2.3305895
0.9147563 0.62634075 2.3305891
0.9453246 0.62650573 2.3302183
0.9759292 0.62634075 2.3305891
1.0050615 0.62634081 2.3305891
1.0341939 0.62634075 2.3305893
1.0648227 0.62617564 2.3309608
1.095377 0.62634069 2.3305893
1.1259165 0.62650579 2.3302178
1.1565498 0.62634069 2.3305893
1.1856822 0.62634075 2.3305891
1.2148144 0.62634075 2.3305891
1.2439469 0.62634069 2.3305893
1.2746091 0.6261757 2.3309605
1.3051299 0.62634069 2.3305893
1.3356361 0.62650579 2.3302178
1.3663028 0.62634069 2.3305895
1.3954352 0.62634069 2.3305893
1.4245676 0.62634069 2.3305893
1.4536999 0.62634069 2.3305893
1.4828323 0.62634069 2.3305895
1.514878 0.62634075 2.3305891
1.5469235 0.62634075 2.3305891
1.5760559 0.62634069 2.3305893
1.6051883 0.62634075 2.3305891
1.6343206 0.62634075 2.3305893
1.663453 0.62634075 2.3305891
1.6941665 0.62650573 2.3302181
1.7259628 0.6261757 2.3309605
1.7566766 0.62634075 2.3305891
1.7858089 0.62634075 2.3305893
1.814941 0.62634069 2.3305893
1.8440735 0.62634081 2.3305891
1.861902 0.62452513 2.3346734
-0.099984676 0.63379794 2.3137524
-0.075215928 0.63354445 2.3143361
-0.046286721 0.63354456 2.3143361
-0.017357523 0.63354445 2.3143361
0.014464601 0.63354456 2.3143361
0.046286728 0.63354456 2.3143361
0.075215928 0.63354445 2.3143361
0.10414512 0.63354456 2.3143361
0.13307433 0.63354445 2.3143361
0.16489646 0.63354456 2.3143361
0.19671857 0.63354445 2.3143361
0.22564779 0.63354456 2.3143361
0.25457701 0.63354456 2.3143361
0.28350618 0.63354456 2.3143361
0.31396118 0.63370734 2.3139699
0.34562466 0.63338172 2.3147023
0.37607962 0.63354445 2.3143361
0.40500885 0.63354445 2.3143361
0.43393803 0.63354445 2.3143361
0.46436924 0.63370723 2.3139699
0.49468431 0.63354456 2.3143361
0.52501404 0.63338166 2.3147023
0.55544072 0.6335445 2.3143361
0.5843699 0.63354456 2.3143361
0.61477733 0.63370728 2.3139699
0.64511615 0.6335445 2.3143361
0.67546976 0.63338166 2.3147023
0.70587254 0.63354445 2.3143361
0.73480177 0.63354445 2.3143361
0.76518536 0.63370728 2.3139699
0.79554808 0.6335445 2.3143361
0.8244772 0.6335445 2.3143361
0.85485923 0.63338178 2.3147023
0.88523358 0.63354456 2.3143361
0.91559345 0.63370728 2.3139699
0.94597989 0.63354445 2.3143361
0.97490901 0.63354456 2.3143361
1.0038383 0.63354456 2.3143361
1.0342486 0.63338166 2.3147023
1.0645946 0.6335445 2.3143361
1.0949261 0.63370728 2.3139699
1.1253408 0.63354456 2.3143361
1.1542702 0.63354445 2.3143361
1.1847042 0.63338178 2.3147023
1.2150265 0.63354456 2.3143361
1.2453343 0.63370728 2.3139699
1.2757727 0.6335445 2.3143361
1.3047019 0.63354445 2.3143361
1.3336312 0.63354445 2.3143361
1.3640937 0.63338166 2.3147023
1.3957422 0.63370728 2.3139699
1.4262047 0.6335445 2.3143361
1.4551339 0.63354456 2.3143361
1.4840631 0.63354445 2.3143361
1.5129923 0.63354445 2.3143361
1.5448145 0.63354445 2.3143361
1.5766366 0.63354456 2.3143361
1.6055657 0.63354445 2.3143361
1.6344948 0.63354456 2.3143361
1.6634244 0.63354456 2.3143361
1.6952462 0.63354456 2.3143361
1.7270683 0.6335445 2.3143361
1.7559975 0.63354456 2.3143361
1.7849268 0.63354456 2.3143361
1.813856 0.63354456 2.3143361
1.8386987 0.63328874 2.3149116
0.46993393 -1.4137104 2.3594682
0.46214539 -1.3952051 2.35481
0.44540355 -1.3567141 2.3442292
0.4562794 -1.3673239 2.3574929
0.44482344 -1.3324547 2.3540399
0.45567307 -1.3433433 2.3671329
0.43767911 -1.3049948 2.3544164
0.42965904 -1.2755771 2.3542206
0.41677937 -1.2415128 2.348053
0.42632908 -1.2474785 2.3611922
0.41266921 -1.2153362 2.3528793
0.42049524 -1.2081835 2.3689873
0.40639189 -1.1853495 2.3558149
0.38646281 -1.141822 2.3421988
0.3983604 -1.1559072 2.3556099
0.38561764 -1.1235493 2.3489099
0.39591545 -1.1286404 2.3636744
0.38059735 -1.0951388 2.3532276
0.39036471 -1.1030743 2.3658466
0.37390625 -1.0657207 2.3552277
0.35755777 -1.0287027 2.3446412
0.36793882 -1.0374591 2.3579116
0.35523215 -1.0062491 2.3507645
0.36364049 -1.0051837 2.365133
0.34823254 -0.97440624 2.3533306
0.36117086 -0.98877925 2.3683336
0.3415316 -0.94504571 2.355288
0.32782584 -0.91135287 2.3475883
0.33784431 -0.91707444 2.3616116
0.32103893 -0.88283086 2.3490288
0.33093175 -0.88641024 2.3637981
0.31700069 -0.8559441 2.3542898
0.29868472 -0.81406224 2.3426251
0.31062746 -0.82618338 2.3569715
0.29579231 -0.79519635 2.3462114
0.30475169 -0.79469806 2.3612378
0.29149762 -0.76320237 2.3533168
0.30152029 -0.77448863 2.3648653
0.28434348 -0.73489279 2.354058
0.26952246 -0.70309746 2.3436735
0.27863127 -0.70566344 2.3575914
0.26299506 -0.67262912 2.3464093
0.27297759 -0.67725855 2.3608565
0.26018587 -0.64394122 2.3544993
0.27240849 -0.65733349 2.3687694
0.25267735 -0.61580271 2.3545787
0.23427168 -0.57396561 2.3427167
0.24569723 -0.58685559 2.3558912
0.23259579 -0.55268681 2.3494065
0.24340163 -0.55774212 2.3650198
0.22873509 -0.52537411 2.3551531
0.21996658 -0.4954302 2.3539557
0.20520282 -0.46023196 2.345175
0.21587892 -0.46830469 2.3592348
0.20203249 -0.43396795 2.3515966
0.21287605 -0.44348711 2.3652892
0.19696146 -0.40529078 2.3559422
0.18841477 -0.37553459 2.3550241
0.17426683 -0.34349483 2.3458574
0.1844781 -0.34679994 2.3612738
0.17192253 -0.31436688 2.3549159
0.18361101 -0.32576147 2.3691742
0.16400951 -0.28509423 2.3548307
0.14644721 -0.24602674 2.3431554
0.15726975 -0.25603983 2.3565927
0.1442856 -0.22196054 2.3502638
0.15487595 -0.22935131 2.3644798
0.13961381 -0.19467853 2.3546538
0.13190761 -0.16486199 2.3551478
0.11727935 -0.13193063 2.3455873
0.12743048 -0.13803655 2.3596585
0.11315437 -0.10432073 2.3510249
0.12419997 -0.11236671 2.3657136
0.10836985 -0.07655362 2.3554456
0.10009462 -0.047093041 2.3548424
0.08631257 -0.01507752 2.3462763
0.096667953 -0.019916993 2.3612456
0.082792923 0.015306721 2.3539498
0.094727769 0.0029620128 2.3681941
0.074163757 0.047074229 2.3537924
0.058589041 0.082029261 2.3435619
0.069283433 0.075173542 2.3581984
0.056160644 0.10709532 2.3506796
0.066219747 0.10169404 2.364902
0.050632156 0.13535829 2.3540854
0.043597363 0.1648882 2.3555689
0.02932499 0.19648607 2.3459992
0.038010873 0.19331172 2.3589504
0.024995362 0.22486256 2.3514414
0.035492074 0.21887247 2.3661382
0.020044142 0.25325313 2.3558586
0.010218102 0.28436676 2.3534327
-0.0058592088 0.3222611 2.3436837
0.0049985689 0.31329557 2.3576469
-0.0084834844 0.34805813 2.3508022
0.0011836068 0.34285107 2.3644657
-0.014269245 0.37571636 2.3535149
-0.020786099 0.40434268 2.3554516
-0.035191823 0.43697375 2.3461215
-0.025951141 0.43363777 2.3599188
-0.039671354 0.46590966 2.3515644
-0.029578282 0.46142587 2.3662624
-0.044744302 0.49475446 2.3559816
-0.064395428 0.5356546 2.3416519
-0.052982278 0.5240764 2.3553822
-0.06706237 0.55832684 2.3473144
-0.056825936 0.55281085 2.3617833
-0.070172153 0.58639622 2.3546402
-0.059183449 0.57407945 2.3673379
-0.074113384 0.61390209 2.3511841
-0.047108468 0.61532819 2.3554237
-0.017665673 0.61532801 2.3554237
0.014721396 0.61532819 2.3554235
0.047108464 0.61532831 2.3554235
0.076551259 0.61532825 2.3554232
0.10599405 0.61532825 2.3554235
0.13543683 0.61532825 2.3554235
0.16487961 0.61532825 2.3554232
0.19432241 0.61532825 2.3554235
0.22376516 0.61532825 2.3554235
0.25398079 0.61559236 2.3548284
0.28486106 0.615417 2.3552229
0.31502739 0.61532813 2.3554237
0.34520176 0.61524034 2.3556204
0.37538773 0.61532819 2.3554235
0.40483052 0.61532813 2.3554235
0.43501833 0.61506283 2.3560221
0.4651961 0.61532813 2.3554235
0.49535066 0.61559242 2.3548286
0.52554601 0.61532825 2.3554232
0.55498874 0.61532813 2.3554237
0.58515197 0.61541688 2.3552229
0.61534381 0.61532819 2.3554235
0.64478666 0.61532825 2.3554232
0.67422944 0.61532825 2.3554235
0.7044338 0.61524028 2.3556204
0.73531109 0.61559236 2.3548281
0.76549685 0.61532825 2.3554232
0.7949397 0.61532813 2.3554237
0.82438242 0.61532801 2.3554237
0.85459304 0.61541712 2.3552229
0.88545662 0.61506277 2.3560221
0.91566032 0.61532825 2.3554232
0.94510311 0.61532825 2.3554232
0.97527641 0.61559236 2.3548284
1.005453 0.61532831 2.3554232
1.0348959 0.61532819 2.3554237
1.0650604 0.6152404 2.3556201
1.0952561 0.61532825 2.3554232
1.1246989 0.61532819 2.3554237
1.154884 0.61541694 2.3552229
1.1850539 0.61532825 2.3554235
1.2144969 0.61532819 2.3554237
1.2446722 0.61559242 2.3548284
1.2748469 0.61532825 2.3554235
1.3042878 0.61532742 2.3554204
1.3344911 0.6150611 2.3560147
1.3646506 0.61532617 2.3554161
1.3948429 0.61523861 2.3556128
1.4250108 0.61532605 2.3554161
1.4551704 0.61541522 2.3552158
1.4860365 0.6155901 2.35482
1.5162724 0.61532623 2.3554158
1.5457153 0.61532623 2.3554156
1.575158 0.61532623 2.3554158
1.6046008 0.61532629 2.3554153
1.6340433 0.61532623 2.3554158
1.6634859 0.61532629 2.3554156
1.6929287 0.61532611 2.3554161
1.7239517 0.61566305 2.3546557
1.7554584 0.61523867 2.3556128
1.7863325 0.61506099 2.3560147
1.8165883 0.61532605 2.3554158
1.8460311 0.61532611 2.3554158
1.872391 0.61400336 2.3584018
0.48879346 -1.4225724 2.386713
0.47447562 -1.392001 2.3766124
0.48521841 -1.3975451 2.3919122
0.47233996 -1.3650076 2.3850677
0.46483219 -1.3352244 2.3858771
0.44465864 -1.2924744 2.3715127
0.45693937 -1.3065327 2.3855684
0.44457075 -1.2717885 2.3805444
0.45477095 -1.280525 2.3935316
0.43977338 -1.2449803 2.384522
0.43211156 -1.2151822 2.3850887
0.41570079 -1.1758347 2.375433
0.42597383 -1.1867132 2.3875849
0.41428715 -1.1540047 2.3827851
0.42530382 -1.165091 2.3960776
0.40765581 -1.1249096 2.3847394
0.39949143 -1.0940738 2.3849328
0.38618404 -1.0634773 2.3765173
0.3959327 -1.068249 2.3905151
0.38306257 -1.034694 2.3841352
0.39577365 -1.0493999 2.3986282
0.3750473 -1.0049707 2.3840792
0.35579246 -0.9606396 2.3719497
0.368049 -0.97588122 2.3854272
0.35550809 -0.94155389 2.3799462
0.36620411 -0.94792676 2.394784
0.35125256 -0.91568786 2.3843923
0.34343153 -0.88556087 2.38484
0.32629085 -0.84835148 2.3730245
0.33753073 -0.85735703 2.3876061
0.32509246 -0.82460707 2.381583
0.33530992 -0.83228225 2.3950708
0.31962341 -0.79622978 2.3851411
0.31131655 -0.76610547 2.3847814
0.29711872 -0.7308979 2.3769498
0.30661985 -0.73864979 2.3892055
0.29325667 -0.70377058 2.3826084
0.30569503 -0.71628356 2.397608
0.28697678 -0.67566353 2.3847048
0.27940267 -0.64547825 2.3855858
0.2659896 -0.6136871 2.3775282
0.27694899 -0.61884809 2.393358
0.26224521 -0.58533156 2.3839276
0.25557956 -0.55609012 2.3858922
0.23734412 -0.51621872 2.373441
0.24883704 -0.52793461 2.387243
0.23543459 -0.49267229 2.3807418
0.24539113 -0.499751 2.3940599
0.23009858 -0.4649277 2.3842363
0.22308818 -0.43540242 2.3857579
0.20789485 -0.40093124 2.3759413
0.21769072 -0.40748668 2.389226
0.2039302 -0.37359661 2.3815315
0.21569398 -0.38345116 2.3965995
0.19848743 -0.34540594 2.3850534
0.19085048 -0.31606877 2.3854544
0.1765551 -0.28264692 2.3766594
0.18762903 -0.28927931 2.3920248
0.17380017 -0.25494143 2.3844032
0.18582197 -0.26974156 2.3977027
0.16609207 -0.22569151 2.3846486
0.14827813 -0.18682869 2.3724501
0.15957686 -0.19833201 2.3860221
0.14649186 -0.16432732 2.3794892
0.15660155 -0.16955815 2.3938825
0.14226346 -0.13628431 2.3849487
0.13413917 -0.10729934 2.3843896
0.11874817 -0.07124418 2.3749635
0.12923068 -0.078718595 2.3889678
0.11522869 -0.046511825 2.3801212
0.12576918 -0.050897557 2.3956034
0.11030967 -0.01788705 2.3847008
0.088889606 0.029629868 2.3703895
0.10255064 0.01454214 2.3862691
0.087445825 0.05009431 2.3770804
0.09736491 0.045270495 2.3913388
0.084400237 0.078889236 2.3848331
0.095925979 0.065949112 2.3981495
0.076681368 0.10817857 2.3850727
0.059322186 0.14534111 2.3728876
0.070113651 0.13573554 2.3864517
0.057271291 0.16883154 2.3799174
0.066842787 0.16561475 2.3943067
0.051937751 0.19619372 2.3832531
0.044732712 0.22655658 2.3848248
0.029692259 0.2612966 2.3753808
0.039651569 0.25578314 2.3893998
0.025978819 0.28675681 2.3805499
0.035918899 0.28136951 2.3945935
0.020887099 0.31602725 2.3851249
0.013139875 0.34591395 2.3855884
-0.0059289378 0.38538095 2.3715751
0.0050586006 0.37423626 2.3847988
-0.0076412829 0.40686342 2.3782907
0.0017122356 0.40417823 2.3925636
-0.011904615 0.43503872 2.3837526
0 0.4258869 2.3993628
-0.019567309 0.46448693 2.3841634
-0.035611369 0.50152856 2.3740911
-0.025357485 0.49395794 2.387682
-0.039247304 0.52638191 2.3791146
-0.028732171 0.52201766 2.3945611
-0.043105837 0.55507821 2.3854785
-0.049798857 0.58592355 2.3857877
-0.017951956 0.59839863 2.3935945
0.014959964 0.59839863 2.3935945
0.047871884 0.59839863 2.3935945
0.07779181 0.59839863 2.3935945
0.10771175 0.59839863 2.3935945
0.13763167 0.59839863 2.3935945
0.16755159 0.59839863 2.3935945
0.19747154 0.59839863 2.3935945
0.22739147 0.59839863 2.3935945
0.2573114 0.59839863 2.3935945
0.2872313 0.59839863 2.3935945
0.31715125 0.59839863 2.3935945
0.34707117 0.59839863 2.3935945
0.37699112 0.59839863 2.3935945
0.40691105 0.59839863 2.3935945
0.43683097 0.59839863 2.3935945
0.46675086 0.59839863 2.3935945
0.49667081 0.59839863 2.3935945
0.52659076 0.59839863 2.3935945
0.55651063 0.59839863 2.3935945
0.58643061 0.59839863 2.3935945
0.61635053 0.59839863 2.3935945
0.64627045 0.59839863 2.3935945
0.67619038 0.59839863 2.3935945
0.7061103 0.59839863 2.3935945
0.73603028 0.59839863 2.3935945
0.76595014 0.59839863 2.3935945
0.79587007 0.59839863 2.3935945
0.82579005 0.59839863 2.3935945
0.85570997 0.59839863 2.3935945
0.88562983 0.59839863 2.3935945
0.91554987 0.59839863 2.3935945
0.94546968 0.59839863 2.3935945
0.97538966 0.59839863 2.3935945
1.0053096 0.59839863 2.3935945
1.0352296 0.59839863 2.3935945
1.0651494 0.59839863 2.3935945
1.0950693 0.59839863 2.3935945
1.1249894 0.59839863 2.3935945
1.1549091 0.59839863 2.3935945
1.1848291 0.59839863 2.3935945
1.2147491 0.59839863 2.3935945
1.2446691 0.59839863 2.3935945
1.2745889 0.59839863 2.3935945
1.3045089 0.59839863 2.3935945
1.3344288 0.59839863 2.3935945
1.3643488 0.59839863 2.3935945
1.3942688 0.59839863 2.3935945
1.4241885 0.59839863 2.3935945
1.4541086 0.59839863 2.3935945
1.4840285 0.59839863 2.3935945
1.5139484 0.59839863 2.3935945
1.5438683 0.59839863 2.3935945
1.5737882 0.59839863 2.3935945
1.6037081 0.59839863 2.3935945
1.6336281 0.59839863 2.3935945
1.6635481 0.59839863 2.3935945
1.693468 0.59839863 2.3935945
1.723388 0.59839863 2.3935945
1.7533079 0.59839863 2.3935945
1.7832276 0.59839863 2.3935945
1.8131478 0.59839863 2.3935945
1.8430675 0.59839863 2.3935945
1.8729876 0.59839863 2.3935945
1.8999156 0.59839857 2.3935943
-0.065200292 0.60458452 2.3709197
-0.047598496 0.6039415 2.3800831
-0.01785537 0.60410124 2.3807158
0.014879474 0.60410124 2.3807158
0.047614317 0.60410124 2.3807158
0.077373266 0.60410124 2.3807156
0.10713222 0.60410124 2.3807156
0.13689116 0.60410124 2.3807158
0.16665012 0.60410124 2.3807156
0.19640906 0.60410124 2.3807156
0.22616802 0.60410124 2.3807161
0.25592694 0.60410124 2.3807156
0.28568587 0.60410124 2.3807158
0.31544483 0.60410124 2.3807161
0.34520379 0.60410124 2.3807158
0.37496278 0.60410124 2.3807158
0.40472171 0.60410124 2.3807158
0.43448067 0.60410124 2.3807158
0.4642396 0.60410124 2.3807158
0.49399853 0.60410124 2.3807158
0.52375746 0.60410124 2.3807158
0.55351645 0.60410124 2.3807158
0.58327538 0.60410124 2.3807156
0.61455488 0.60427344 2.3803282
0.64576387 0.60410124 2.3807158
0.6755228 0.60410124 2.3807158
0.70528173 0.60410124 2.3807156
0.73504066 0.60410124 2.3807161
0.76479965 0.60410124 2.3807158
0.79455858 0.60410124 2.3807156
0.82431757 0.60410124 2.3807158
0.8540765 0.60410124 2.3807156
0.88383543 0.60410124 2.3807156
0.91359437 0.60410124 2.3807158
0.94486237 0.60392904 2.3811033
0.97609347 0.60410124 2.3807156
1.0058526 0.60410124 2.3807158
1.0356114 0.60410124 2.3807156
1.0653704 0.60410124 2.3807156
1.0951294 0.60410124 2.3807158
1.1248883 0.60410124 2.3807158
1.1546472 0.60410124 2.3807158
1.1844062 0.60410124 2.3807161
1.2155879 0.60427344 2.3803282
1.2468947 0.60410124 2.3807156
1.2766535 0.60410124 2.3807156
1.3064126 0.60410124 2.3807156
1.3361715 0.60410124 2.3807156
1.3659304 0.60410124 2.3807158
1.3956894 0.60410124 2.3807158
1.4254483 0.60410124 2.3807158
1.4552072 0.60410124 2.3807158
1.4849662 0.60410124 2.3807156
1.5147251 0.60410124 2.3807158
1.5444841 0.60410124 2.3807156
1.5742431 0.60410124 2.3807158
1.604002 0.60410124 2.3807158
1.633761 0.60410124 2.3807156
1.6635199 0.60410124 2.3807161
1.6932787 0.60410124 2.3807158
1.7230377 0.60410124 2.3807158
1.7527968 0.60410124 2.3807156
1.7825556 0.60410124 2.3807156
1.8139105 0.60427344 2.3803284
1.8450441 0.60410124 2.3807158
1.8748032 0.60410124 2.3807156
1.8958484 0.60315406 2.3828468
0.50494194 -1.4426913 2.4044855
0.51711506 -1.4483896 2.4220579
0.50448561 -1.4223957 2.4127316
0.51544452 -1.4341466 2.425621
0.49799806 -1.3943328 2.4144654
0.49040607 -1.3652835 2.4148147
0.47539103 -1.3268734 2.407043
0.48559245 -1.3382224 2.4188707
0.4730117 -1.3029299 2.4137397
0.48564702 -1.3173175 2.4282351
0.46631706 -1.2748896 2.4151211
0.45842555 -1.2458483 2.4149683
0.4444809 -1.2113402 2.4072356
0.45479631 -1.2175534 2.4215329
0.44160867 -1.1849597 2.4141989
0.43433195 -1.1554362 2.4152806
0.41434801 -1.1109331 2.4020174
0.42671415 -1.125195 2.4161181
0.41426009 -1.0921177 2.4102187
0.42404765 -1.0994859 2.4231296
0.41006204 -1.0662081 2.4147813
0.40215203 -1.0357246 2.4152381
0.38449916 -0.99728984 2.4031196
0.39516678 -1.0060108 2.4168823
0.38349825 -0.97378713 2.4118972
0.39418134 -0.98241627 2.4257314
0.378048 -0.94527388 2.4155469
0.36861473 -0.91360009 2.4140122
0.35483861 -0.88107324 2.4056854
0.36497906 -0.88721579 2.4197156
0.35170513 -0.85369766 2.412663
0.36425012 -0.86509216 2.4283342
0.3449423 -0.82437205 2.4145055
0.33774987 -0.79485404 2.41572
0.32315004 -0.76145142 2.4064116
0.33383223 -0.76710218 2.4215665
0.32083839 -0.73392224 2.4148147
0.31363276 -0.70435458 2.416029
0.29425704 -0.66357785 2.4020984
0.30607879 -0.67554802 2.4163289
0.2928865 -0.64222562 2.4093108
0.30290255 -0.6481967 2.4232204
0.28908142 -0.61395544 2.4155743
0.28028372 -0.58337831 2.4146125
0.26451367 -0.54705751 2.4046698
0.27506289 -0.55614269 2.4180753
0.26160237 -0.52197689 2.410996
0.27274057 -0.53335446 2.4243608
0.25657493 -0.49500635 2.4146562
0.24941082 -0.46469933 2.4162688
0.23337904 -0.42825443 2.4059427
0.24423905 -0.43780077 2.4196591
0.23075186 -0.40265751 2.4129667
0.24269605 -0.41561514 2.4269605
0.22484739 -0.37487704 2.4155364
0.20409258 -0.33014977 2.4010892
0.21640244 -0.34547192 2.414633
0.20295988 -0.3104488 2.4079597
0.21371014 -0.31752595 2.4225874
0.19972913 -0.28322402 2.4147089
0.21258801 -0.29762322 2.4295774
0.19141178 -0.2538985 2.4139848
0.17426479 -0.21332234 2.4036522
0.1858636 -0.22513109 2.4175823
0.17203021 -0.19142646 2.4096806
0.18306303 -0.19881713 2.4246411
0.16729327 -0.1633949 2.4142921
0.16007137 -0.13287662 2.415905
0.14428575 -0.099187389 2.4047625
0.15384121 -0.10411507 2.4183724
0.14086385 -0.071240351 2.4115155
0.15162045 -0.078837715 2.4259272
0.13592955 -0.042285524 2.4162107
0.12732217 -0.014262762 2.4144273
0.1142796 0.015045862 2.4058859
0.12366927 0.010762654 2.4195018
0.11004162 0.043716729 2.4116108
0.1212786 0.03335347 2.4255719
0.10438908 0.072888665 2.4152141
0.096639581 0.10266812 2.4156263
0.082515456 0.13494772 2.4066043
0.092528544 0.13057896 2.4212201
0.079415761 0.16438167 2.4145513
0.091057591 0.15176265 2.4282024
0.071600258 0.19404463 2.4147968
0.054051533 0.23122227 2.4022903
0.064947575 0.22199558 2.4162107
0.051959667 0.25526357 2.4095082
0.06161844 0.25253612 2.4242625
0.0469031 0.2840997 2.4139557
0.039253999 0.31388876 2.4145427
0.024048619 0.34870982 2.4048622
0.03409867 0.34364998 2.4192326
0.020504436 0.37614927 2.4111896
0.030306956 0.36974978 2.4245565
0.015110505 0.40448561 2.4148502
0.0077845678 0.43539625 2.4164655
-0.0070132501 0.46500236 2.4051399
0.0022733072 0.46355963 2.4198542
-0.010545684 0.49621248 2.4131608
0 0.4884671 2.4271564
-0.01670759 0.52495253 2.4157305
-0.031068798 0.55526924 2.4054608
-0.021928068 0.55437583 2.420167
-0.034618191 0.58561301 2.4087353
-0.01563525 0.58798647 2.4160171
0.012076973 0.58872497 2.415395
0.042269405 0.58872497 2.4153945
0.072461836 0.58872497 2.4153945
0.10265427 0.58872485 2.4153948
0.1328467 0.58872485 2.4153945
0.16303913 0.58872497 2.4153945
0.19323157 0.58872497 2.4153945
0.22342399 0.58872503 2.4153948
0.25361642 0.58872497 2.4153945
0.28380883 0.58872491 2.415395
0.31400129 0.58872485 2.4153948
0.3441937 0.58872497 2.4153945
0.37438616 0.58872485 2.4153945
0.4045786 0.58872491 2.4153948
0.43477103 0.58872503 2.4153945
0.46496341 0.58872497 2.4153945
0.49437436 0.58903348 2.4146998
0.52383041 0.58872497 2.4153943
0.55402291 0.58872497 2.4153945
0.58421534 0.58872497 2.4153945
0.61440772 0.58872485 2.4153948
0.64460009 0.58872485 2.4153945
0.67479259 0.58872497 2.4153945
0.70498508 0.58872497 2.4153945
0.7343908 0.58882666 2.4151647
0.76385754 0.58872497 2.4153945
0.79404992 0.58872485 2.4153945
0.82424241 0.58872491 2.4153943
0.85443491 0.58872485 2.4153945
0.88462728 0.58872497 2.4153945
0.91481966 0.58872503 2.4153948
0.94501209 0.58872497 2.4153945
0.97520459 0.58872485 2.4153945
1.0046278 0.58903342 2.4146998
1.0340716 0.58872497 2.415395
1.0642641 0.58872497 2.4153945
1.0944564 0.58872497 2.4153945
1.1246489 0.58872497 2.4153945
1.1548413 0.58872497 2.415395
1.1850337 0.58872503 2.4153945
1.2152261 0.58872503 2.4153943
1.2454187 0.58872485 2.4153945
1.275611 0.58872485 2.4153945
1.3050556 0.5886215 2.4156268
1.334489 0.58872497 2.4153945
1.364677 0.58872294 2.4153862
1.3948692 0.588723 2.4153864
1.4250616 0.58872294 2.4153864
1.4544777 0.58882463 2.4151566
1.4839339 0.588723 2.4153869
1.5132899 0.5890314 2.4146914
1.5428007 0.588723 2.4153869
1.5729932 0.58872294 2.415386
1.6031853 0.588723 2.4153862
1.6333777 0.58872294 2.4153862
1.66357 0.588723 2.4153864
1.6937621 0.58872294 2.4153867
1.7239548 0.58872294 2.4153869
1.7541469 0.58872294 2.4153862
1.7843393 0.588723 2.4153869
1.8145317 0.588723 2.4153867
1.8447239 0.58872294 2.4153864
1.8749164 0.588723 2.4153862
1.9051087 0.58872294 2.4153862
1.9280661 0.58547562 2.422709
0.54729575 -1.4758537 2.4597561
0.53227246 -1.4539932 2.4446309
0.5406667 -1.4561137 2.4575758
0.52428585 -1.4243824 2.4445741
0.5171026 -1.395872 2.4453561
0.50477839 -1.363891 2.4391837
0.51520306 -1.3707987 2.4533477
0.50022078 -1.3346581 2.4446335
0.51018357 -1.3400002 2.4587159
0.49285802 -1.3054627 2.4454262
0.47469574 -1.2628105 2.4343371
0.48523682 -1.2766889 2.445601
0.47372586 -1.2422751 2.4418514
0.48506519 -1.2525685 2.4560266
0.46956146 -1.2161986 2.4465439
0.44958699 -1.1786469 2.4301999
0.46032372 -1.1853245 2.4449785
0.44447437 -1.1477087 2.4354758
0.45481387 -1.1568912 2.4484951
0.443389 -1.1228762 2.4447079
0.45457712 -1.1364428 2.4571736
0.43518853 -1.0945015 2.443749
0.41966239 -1.0613183 2.4328256
0.42997578 -1.0668387 2.4474156
0.41323861 -1.0285109 2.4367714
0.4241246 -1.0374788 2.4507835
0.41080633 -1.0029958 2.4440782
0.40331858 -0.97464991 2.4442816
0.38943344 -0.94619977 2.433959
0.3978264 -0.94557756 2.4481115
0.38222617 -0.91367036 2.436486
0.39334428 -0.91807473 2.4529138
0.37943855 -0.8843835 2.4448812
0.37201798 -0.85407555 2.4460683
0.35785341 -0.82768106 2.4343669
0.36700389 -0.82386476 2.4511912
0.35172579 -0.79288894 2.4396911
0.36183187 -0.80031359 2.4530973
0.34746471 -0.76541829 2.4448459
0.32828948 -0.72345275 2.4317739
0.34060994 -0.73669028 2.4462724
0.32703674 -0.70586395 2.4375198
0.33506817 -0.7038402 2.4516971
0.3210775 -0.67447597 2.4416032
0.3315289 -0.68147105 2.4557698
0.31571981 -0.64624256 2.4452817
0.29821438 -0.60555589 2.4344029
0.30865571 -0.61617136 2.4469523
0.29577008 -0.58542746 2.4392989
0.30437422 -0.58297241 2.4546132
0.28966171 -0.55332339 2.4434526
0.30115992 -0.56236815 2.4584484
0.28199059 -0.52399892 2.4437923
0.26791048 -0.49014515 2.43555
0.27829686 -0.4973757 2.4495037
0.26426938 -0.46382603 2.4412098
0.27419913 -0.46859345 2.4555113
0.25758624 -0.43241307 2.4441116
0.27038866 -0.44859934 2.4580786
0.25068218 -0.40350905 2.4455345
0.23657909 -0.37059268 2.4368372
0.24688198 -0.37643987 2.4512765
0.23361698 -0.34310424 2.4441442
0.24584138 -0.35647002 2.4584138
0.22611454 -0.31470275 2.4443507
0.20658371 -0.27341962 2.4303966
0.21911639 -0.2853356 2.4458194
0.20544402 -0.25331262 2.4374311
0.21556389 -0.25845924 2.451879
0.20218073 -0.22559157 2.4443464
0.21521397 -0.23980986 2.4595883
0.19417879 -0.19510645 2.4446514
0.17639413 -0.15510333 2.4330225
0.18814731 -0.16671494 2.4472857
0.1746475 -0.13192889 2.4404225
0.18531816 -0.13990352 2.4545095
0.16934663 -0.10430215 2.443922
0.16203767 -0.07336922 2.4455774
0.14613864 -0.036529694 2.4356439
0.15573272 -0.044192374 2.4481058
0.14338937 -0.015244111 2.4405518
0.15349048 -0.018413812 2.4558477
0.13886301 0.011789705 2.4450736
0.1301021 0.043216918 2.4445379
0.11567689 0.076112509 2.4353032
0.12519018 0.072126508 2.4492559
0.11213015 0.10491402 2.4422283
0.12277418 0.095151901 2.4554839
0.10567094 0.13490525 2.4448671
0.097826578 0.16506131 2.445292
0.084284209 0.19700631 2.4370821
0.093667552 0.193462 2.4510241
0.080390789 0.22750433 2.4441903
0.09218172 0.21509068 2.4581792
0.073383078 0.25679272 2.445606
0.054711614 0.29483667 2.4316273
0.065583721 0.28451306 2.44502
0.052241072 0.31777653 2.437727
0.063384965 0.31180003 2.4534996
0.049464554 0.34392938 2.4447491
0.061482996 0.33200818 2.4593198
0.040600713 0.37438896 2.4436257
0.024327762 0.41053286 2.4327762
0.035622157 0.40341097 2.4482806
0.022118853 0.4354251 2.4401746
0.031908274 0.43072888 2.4542756
0.016942177 0.46496546 2.4447353
0.0091880932 0.4951762 2.4453237
-0.0060885064 0.52970505 2.4354026
0.0036832434 0.52410507 2.4490716
-0.010359751 0.55500615 2.4395704
0 0.55251312 2.4555912
-0.011327221 0.57551348 2.4416094
0.012232658 0.57491994 2.4465318
0.042814307 0.57492 2.4465318
0.073395953 0.57492012 2.446532
0.1039776 0.57491994 2.4465318
0.13455926 0.57492006 2.446532
0.1651409 0.57492 2.446532
0.19572254 0.57492 2.4465318
0.2263042 0.57492 2.4465318
0.25594109 0.57520574 2.4458866
0.28542119 0.57491994 2.4465318
0.31498325 0.57491958 2.4465344
0.34454572 0.57492 2.446532
0.37406471 0.57463467 2.447175
0.40367776 0.57492006 2.446532
0.43425941 0.57491994 2.4465318
0.46484104 0.57492006 2.446532
0.49542266 0.57492006 2.446532
0.52498859 0.57520574 2.4458866
0.55453968 0.57492 2.446532
0.58512133 0.57492006 2.446532
0.61570299 0.57492 2.4465318
0.6452654 0.57491952 2.4465344
0.67482746 0.57492 2.446532
0.70540917 0.57492012 2.446532
0.73599082 0.57492 2.446532
0.76561272 0.57463473 2.447175
0.79403615 0.57520574 2.4458866
0.82365829 0.57492006 2.446532
0.85423982 0.57491994 2.4465318
0.88482147 0.57492 2.446532
0.91540325 0.57492 2.446532
0.94496572 0.57491946 2.4465344
0.97452766 0.57491994 2.4465318
1.0051094 0.57491994 2.4465318
1.0356909 0.57491994 2.446532
1.0652602 0.5752058 2.4458866
1.0948031 0.57491744 2.4465208
1.1253846 0.57491744 2.4465208
1.1549625 0.57463199 2.4471631
1.1845163 0.57491744 2.4465208
1.2150977 0.57491738 2.4465206
1.2456795 0.57491738 2.4465206
1.2752417 0.57491672 2.4465225
1.3048035 0.57491744 2.4465208
1.3343024 0.5752036 2.4458771
1.3639205 0.57491738 2.4465206
1.3945018 0.57491744 2.4465208
1.4250834 0.57491744 2.4465208
1.4556648 0.57491738 2.4465206
1.4862463 0.57491738 2.4465206
1.5168278 0.57491738 2.4465206
1.5465089 0.57463199 2.4471631
1.5749406 0.57491672 2.4465225
1.6033489 0.5752036 2.4458771
1.6330374 0.57491744 2.4465208
1.663619 0.57491744 2.4465208
1.6942008 0.57491744 2.4465208
1.7247821 0.57491738 2.4465206
1.7553636 0.57491744 2.4465208
1.7859451 0.57491744 2.4465208
1.8165268 0.57491744 2.4465208
1.8461828 0.5752036 2.4458768
1.8756434 0.57491738 2.4465206
1.9052051 0.57491666 2.4465222
1.9336779 0.57463199 2.4471626
1.9538397 0.57225001 2.4525218
0.55922121 -1.4803017 2.4775002
0.55124551 -1.4552023 2.475462
0.53635979 -1.4210355 2.466022
0.54638934 -1.4267818 2.4800549
0.53250635 -1.3954868 2.4709947
0.54071271 -1.3921746 2.4860353
0.52553189 -1.3649129 2.4730375
0.51880801 -1.334626 2.4753685
0.50477922 -1.3004832 2.4673386
0.51604927 -1.3078353 2.4827013
0.50193328 -1.2759209 2.4735336
0.49518558 -1.2455398 2.4758706
0.48726276 -1.2140638 2.4767506
0.47379801 -1.1827537 2.4683969
0.48416725 -1.188683 2.482909
0.47033387 -1.1541367 2.4753764
0.46276063 -1.1254301 2.4756012
0.44732842 -1.0978006 2.4623563
0.45554918 -1.0948074 2.4772735
0.44315407 -1.0638558 2.4705231
0.45334643 -1.0712541 2.4840899
0.43846601 -1.0360112 2.4751346
0.41858137 -0.99105293 2.4622433
0.4307254 -1.0053267 2.4759626
0.41528007 -0.97350168 2.4645567
0.42474085 -0.97347713 2.4802079
0.41164276 -0.94254225 2.4722874
0.42276013 -0.95120519 2.4868245
0.40648147 -0.91505635 2.4759626
0.3877452 -0.8770408 2.4618742
0.39899954 -0.8868745 2.4761105
0.3860901 -0.85679209 2.4681294
0.3947269 -0.85647982 2.4825449
0.38059527 -0.82412523 2.4735482
0.39161873 -0.83607304 2.4864683
0.37352073 -0.7938506 2.4752917
0.35736096 -0.75784659 2.4645584
0.36753973 -0.76602656 2.4777586
0.35522729 -0.73515087 2.4711099
0.36353084 -0.73327529 2.4856713
0.3482393 -0.70571101 2.4726276
0.36093616 -0.71564931 2.4892149
0.34061524 -0.67501473 2.4736524
0.32691234 -0.63839471 2.4672627
0.33717161 -0.64719832 2.4803066
0.32355672 -0.61307013 2.4729614
0.33587712 -0.6251027 2.4879785
0.31653774 -0.58355176 2.474468
0.30950886 -0.55399108 2.4759717
0.29489803 -0.52196741 2.4660306
0.30572367 -0.52813089 2.4811943
0.29230857 -0.49333966 2.4744642
0.30473518 -0.509965 2.4876342
0.28461257 -0.46401304 2.4747589
0.27690876 -0.43467414 2.4750502
0.26449919 -0.40290132 2.4686399
0.2742216 -0.4056291 2.4834998
0.26032701 -0.37473655 2.474247
0.25315678 -0.34697554 2.4747233
0.2338541 -0.30462384 2.4616222
0.24608806 -0.31726068 2.4762321
0.23226377 -0.28163621 2.4691973
0.24339914 -0.29058191 2.4836366
0.22844045 -0.25420779 2.4750576
0.20913638 -0.21528745 2.460428
0.22135517 -0.22443178 2.4765611
0.20706408 -0.19720355 2.4650218
0.21622412 -0.19495238 2.4811687
0.2014944 -0.16442733 2.4703691
0.21109235 -0.17072679 2.4834394
0.19659248 -0.13565558 2.4750361
0.17857493 -0.095443308 2.4631026
0.1904887 -0.10684591 2.4777389
0.17681372 -0.071797848 2.4706912
0.18628235 -0.077607945 2.4837646
0.16905181 -0.042110667 2.471045
0.18024752 -0.049718276 2.4861724
0.16394648 -0.015466963 2.4744351
0.14785689 0.021564379 2.4642816
0.15881661 0.011272308 2.477834
0.14549795 0.044618081 2.4706166
0.15531021 0.040390357 2.4849634
0.13990965 0.073754497 2.4743164
0.13171944 0.10562716 2.4749222
0.1171088 0.13869102 2.4654484
0.12674934 0.13501884 2.4797583
0.11306862 0.16681378 2.4712567
0.12430711 0.15849352 2.4861422
0.10757735 0.19511196 2.4747412
0.10059488 0.22332238 2.4757257
0.086332038 0.25592238 2.4666295
0.095316939 0.25184733 2.4796624
0.081918843 0.28590614 2.4726448
0.093274727 0.27671695 2.4873261
0.075706117 0.31512648 2.4753499
0.055353586 0.3567231 2.4601593
0.067513779 0.34480745 2.4749811
0.053757261 0.37892643 2.4673872
0.064718314 0.37144265 2.4821846
0.050057255 0.40765035 2.4740217
0.062174547 0.39169964 2.4869819
0.042810943 0.43615517 2.4746976
0.024613354 0.47380707 2.4613354
0.036649663 0.46389019 2.4768264
0.022925775 0.49636224 2.4685555
0.032266017 0.49139795 2.4817896
0.019096358 0.52659202 2.475647
0.031101868 0.51007062 2.4881494
0.013673344 0.55778956 2.4718876
0.043292753 0.56279045 2.4738715
0.074216157 0.56279045 2.4738717
0.10513955 0.56279045 2.4738717
0.13606295 0.56279045 2.4738719
0.16605499 0.56308264 2.473212
0.19480936 0.56278992 2.4738741
0.22358784 0.56249875 2.474529
0.25357187 0.56279045 2.4738719
0.28449523 0.56279045 2.4738715
0.31541866 0.56279045 2.4738717
0.34536284 0.56308264 2.473212
0.37519616 0.56279045 2.4738717
0.40508863 0.56278986 2.4738741
0.43498144 0.56279045 2.4738715
0.46485448 0.56249875 2.4745288
0.49477443 0.56279045 2.4738717
0.52467072 0.56308264 2.473212
0.55455184 0.56279045 2.4738715
0.58547533 0.56279045 2.4738717
0.61536801 0.56278986 2.4738743
0.64526057 0.56279045 2.4738719
0.67518955 0.56249875 2.474529
0.7039786 0.56308264 2.4732118
0.73390764 0.56279045 2.4738717
0.76483101 0.56279045 2.4738719
0.79472375 0.56278986 2.4738741
0.82461619 0.56279045 2.4738715
0.85553956 0.56279045 2.4738717
0.88548708 0.56308264 2.473212
0.91423899 0.56249875 2.4745288
0.94418669 0.56279045 2.4738715
0.97511011 0.56279045 2.4738715
1.0050033 0.56278986 2.4738743
1.0348954 0.56279045 2.4738719
1.0647949 0.56308264 2.473212
1.0946728 0.56279045 2.4738715
1.1255962 0.56279045 2.4738717
1.1555055 0.56249875 2.4745293
1.1853892 0.56279045 2.4738717
1.2152824 0.56278992 2.4738743
1.2441028 0.56308264 2.4732118
1.2740285 0.56279045 2.4738715
1.304952 0.56279045 2.4738719
1.3358754 0.56279045 2.4738719
1.3658406 0.56249881 2.474529
1.3946383 0.56278986 2.4738743
1.4234105 0.56308264 2.473212
1.4533844 0.56279045 2.4738717
1.4843075 0.56279045 2.4738717
1.5152311 0.56279045 2.4738717
1.5461545 0.56279045 2.4738715
1.577078 0.56279045 2.4738715
1.6049088 0.56279039 2.4738717
1.63274 0.56279045 2.4738717
1.6636634 0.56279045 2.4738715
1.6945866 0.56279045 2.4738717
1.7255104 0.56279045 2.4738715
1.7564337 0.56279045 2.4738715
1.7864356 0.56308264 2.4732118
1.8140391 0.56247574 2.4745822
1.8430189 0.56279045 2.4738719
1.8739425 0.56279045 2.4738717
1.9048659 0.56279045 2.4738717
1.9357895 0.56279045 2.4738717
1.9628825 0.56241924 2.4747083
1.9802798 0.55869961 2.4831095
0.58713216 -1.5070584 2.5117638
0.56726432 -1.474262 2.4934697
0.5789628 -1.4866904 2.5072935
0.56531227 -1.4554375 2.4986026
0.57407284 -1.4529822 2.5141745
0.56056893 -1.4255645 2.5040274
0.5529604 -1.395842 2.5046535
0.53602093 -1.3587456 2.4931207
0.54745221 -1.3670237 2.5083437
0.53407842 -1.3355258 2.5002167
0.54245579 -1.3317651 2.5157323
0.52903235 -1.3045986 2.505604
0.51932859 -1.2749354 2.502732
0.50541443 -1.2385676 2.4958737
0.51606929 -1.2470133 2.5097399
0.50397146 -1.2145065 2.5041695
0.51327091 -1.215475 2.5191236
0.49544498 -1.1848559 2.5032387
0.47961777 -1.1523284 2.4915209
0.48924738 -1.1555945 2.5059862
0.474446 -1.1205567 2.4970841
0.48493141 -1.1283448 2.5109508
0.47139427 -1.0960513 2.5029192
0.48507708 -1.1087476 2.519881
0.46438026 -1.0664706 2.5044565
0.44925272 -1.0295323 2.4958487
0.4600586 -1.0392872 2.5093796
0.44196892 -1.002476 2.4958138
0.45288256 -1.0088754 2.5110199
0.43981272 -0.97400838 2.5048914
0.4323543 -0.94299817 2.5063281
0.41825515 -0.91140604 2.497046
0.42782852 -0.91483241 2.5113499
0.41241902 -0.88418144 2.4994826
0.42115924 -0.88316727 2.5143836
0.40683359 -0.85431617 2.5035133
0.39977717 -0.82456988 2.505054
0.38722989 -0.79318112 2.4982576
0.39663014 -0.79593146 2.5125756
0.38212076 -0.76591945 2.5019116
0.39016691 -0.76145482 2.517206
0.37572154 -0.73575538 2.5047255
0.35483566 -0.69099575 2.4900749
0.36864254 -0.70592159 2.5062675
0.35410774 -0.67163199 2.4974604
0.36538136 -0.67944694 2.5126305
0.35119635 -0.6444425 2.5047207
0.34410214 -0.61455446 2.5062599
0.32692116 -0.58534336 2.4908323
0.33613372 -0.58393383 2.5066838
0.3230449 -0.55326879 2.4986622
0.33310238 -0.55620813 2.5139802
0.32004154 -0.52572167 2.5059285
