# .PCD v0.7 - Point Cloud Data file format
VERSION 0.7
FIELDS x y z
SIZE 4 4 4
TYPE F F F
COUNT 1 1 1
WIDTH 1495
HEIGHT 1
VIEWPOINT 0 0 0 1 0 0 0
POINTS 1495
DATA ascii
0.73586005 1.1826637 3.0360789
0.75653243 1.1879486 3.0329666
-1.4897146 1.2124441 2.8135245
-1.4880097 1.2170479 2.8249471
0.65247381 1.2133071 3.0487051
0.67342687 1.2148612 3.0455263
0.70472217 1.2153436 3.0407889
0.73646891 1.2131587 3.0359879
0.75653243 1.2173713 3.0329666
-1.4897146 1.241926 2.8135245
-1.4880097 1.2466418 2.8249471
0.65247363 1.2429905 3.0487049
0.67322153 1.2453852 3.0455565
0.70472229 1.2448961 3.0407889
0.73606288 1.2444067 3.0360484
0.75653261 1.2467943 3.0329669
-1.4897146 1.2750932 2.8135247
-1.4880097 1.2762356 2.8249471
0.65247363 1.272674 3.0487049
0.67342663 1.2759752 3.0455267
0.70472229 1.2744488 3.0407889
0.73565698 1.2756579 3.0361078
0.75653261 1.2762172 3.0329669
-1.4897146 1.3082603 2.8135245
-1.4880097 1.3058295 2.8249471
0.65247363 1.3023572 3.0487049
0.67281044 1.3064363 3.0456173
0.70472229 1.304001 3.0407889
0.73585999 1.3060865 3.0360792
0.75653261 1.30564 3.0329669
-1.4897146 1.3377421 2.8135245
-1.4880097 1.3354235 2.8249471
0.65247363 1.3320405 3.0487049
0.67342675 1.3370904 3.0455265
0.70472229 1.3335532 3.0407889
0.73525131 1.33639 3.0361731
0.75653255 1.3350629 3.0329666
-1.4746592 1.3518035 2.8216386
-1.445259 1.3518035 2.8245881
-1.4158591 1.3518035 2.827538
-1.3864591 1.3518035 2.8304877
-1.3570592 1.3518035 2.8334377
-1.3276591 1.3518035 2.8363876
-1.298259 1.3518035 2.8393371
-1.265184 1.3518037 2.8426559
-1.2321091 1.3518035 2.8459744
-1.202709 1.3518035 2.8489244
-1.1733091 1.3518035 2.8518739
-1.143909 1.3518035 2.8548238
-1.1145091 1.3518035 2.8577738
-1.0851091 1.3518035 2.8607237
-1.0557089 1.3518035 2.8636734
-1.0263091 1.3518035 2.8666232
-0.99690914 1.3518035 2.8695734
-0.96750903 1.3518035 2.8725231
-0.93810916 1.3518035 2.8754728
-0.90870905 1.3518035 2.8784225
-0.879309 1.3518035 2.8813725
-0.84990907 1.3518035 2.8843224
-0.82050896 1.3518035 2.8872724
-0.78743398 1.3518037 2.8905907
-0.75433719 1.3517646 2.8938258
-0.72493815 1.3517646 2.8967755
-0.69553888 1.3517646 2.8997252
-0.66613984 1.3517646 2.9026752
-0.63674057 1.3517646 2.9056249
-0.60734141 1.3517646 2.9085746
-0.57794237 1.3517646 2.9115241
-0.54854321 1.3517646 2.9144742
-0.51914406 1.3517646 2.9174235
-0.48974487 1.3517646 2.9203734
-0.46034569 1.3517646 2.9233234
-0.43094656 1.3517646 2.9262731
-0.40154734 1.3517646 2.9292228
-0.37214822 1.3517646 2.9321725
-0.34274909 1.3517646 2.9351225
-0.31334996 1.3517646 2.938072
-0.28027585 1.3517646 2.9413905
-0.24720183 1.3517646 2.9447088
-0.2178027 1.3517646 2.9476588
-0.18840352 1.3517646 2.9506085
-0.15900442 1.3517646 2.9535582
-0.1296052 1.3517646 2.9565079
-0.10020608 1.3517646 2.9594579
-0.070806891 1.3517646 2.9624074
-0.041407794 1.3517646 2.9653571
-0.012008727 1.3517646 2.968307
0.017390549 1.3517646 2.9712567
0.046789765 1.3517646 2.9742067
0.076188937 1.3517646 2.9771562
0.10558806 1.3517646 2.9801061
0.13498709 1.3517646 2.9830556
0.16438639 1.3517646 2.9860055
0.19746035 1.3517646 2.9893241
0.23053455 1.3517646 2.9926426
0.25993359 1.3517646 2.9955921
0.28933281 1.3517646 2.9985421
0.31873187 1.3517646 3.0014915
0.34813097 1.3517646 3.0044415
0.37753016 1.3517646 3.007391
0.40692934 1.3517646 3.0103409
0.43632856 1.3517646 3.0132906
0.46572766 1.3517646 3.0162404
0.49512684 1.3517646 3.0191901
0.52452594 1.3517646 3.02214
0.55392516 1.3517646 3.02509
0.58332419 1.3517646 3.0280392
0.61272353 1.3517646 3.0309894
0.64557302 1.351374 3.0388606
0.67519677 1.3517646 3.0372574
0.70802188 1.3512955 3.0395205
-1.484151 -1.7824364 2.8506331
0.53228891 -1.7878026 3.0668726
0.55367237 -1.7846192 3.0636528
0.58125436 -1.783098 3.0595019
0.61284155 -1.7800364 3.0546939
0.63846713 -1.7794119 3.0508602
-1.4845421 -1.7556533 2.8480551
0.53228897 -1.7578185 3.0668724
0.55367249 -1.7546883 3.063652
0.58207148 -1.7561285 3.0593755
0.61451787 -1.7540838 3.0544403
0.63846707 -1.7571228 3.0508599
-1.4845423 -1.7258332 2.8480549
0.53228891 -1.7278343 3.0668728
0.55367255 -1.7247576 3.0636525
0.58207148 -1.7262686 3.0593755
0.61384749 -1.7235173 3.0545421
0.63846713 -1.727404 3.0508602
-1.4845421 -1.6960125 2.8480551
0.53228891 -1.6978502 3.0668726
0.55367243 -1.6948268 3.0636523
0.58186305 -1.6954492 3.0594049
0.61384749 -1.6937374 3.0545421
0.63846713 -1.6976854 3.0508602
-1.4845421 -1.6661924 2.8480551
0.53228891 -1.6678661 3.0668726
0.55367243 -1.6648961 3.0636523
0.58207154 -1.6646824 3.0593758
0.61384737 -1.6639575 3.0545421
0.63846707 -1.6679665 3.0508599
-1.4845423 -1.6363719 2.8480551
0.53228891 -1.6378818 3.0668726
0.55367243 -1.6349655 3.0636523
0.58207154 -1.6348226 3.0593758
0.61384737 -1.6341774 3.0545421
0.63807702 -1.6362364 3.0509176
-1.4845421 -1.6065516 2.8480551
0.53228891 -1.6078979 3.0668728
0.55367255 -1.6050347 3.0636523
0.58207154 -1.6049628 3.0593753
0.61384743 -1.6043972 3.0545423
0.63846713 -1.6048129 3.0508602
-1.4845423 -1.5767312 2.8480551
0.53228891 -1.5779138 3.0668728
0.55367243 -1.5751042 3.0636525
0.58207148 -1.5751029 3.0593755
0.61384737 -1.5746173 3.0545421
0.63846713 -1.5750942 3.0508602
-1.4845421 -1.546911 2.8480551
0.53228891 -1.5479296 3.0668726
0.55367243 -1.5451734 3.0636525
0.58207148 -1.545243 3.0593755
0.61384737 -1.5448374 3.0545421
0.63885713 -1.5436751 3.0508027
-1.4846768 -1.5157901 2.8471627
0.53228897 -1.5179454 3.0668724
0.55367243 -1.5152426 3.0636523
0.58227986 -1.5144789 3.0593436
0.61384726 -1.5150572 3.0545421
0.63846713 -1.511943 3.0508602
-1.4845421 -1.4847946 2.8480551
0.53228891 -1.4879614 3.0668726
0.55367249 -1.4853119 3.063652
0.58207154 -1.4836578 3.0593758
0.61384737 -1.4852772 3.0545421
0.63846707 -1.4822241 3.0508599
-1.4845423 -1.4549744 2.8480554
0.53228891 -1.4579773 3.0668726
0.55367243 -1.455381 3.0636525
0.58207154 -1.4537981 3.0593758
0.61384737 -1.4554976 3.0545421
0.63846713 -1.4525052 3.0508602
-1.4845421 -1.4251541 2.8480551
0.53228891 -1.4279932 3.0668726
0.55367243 -1.4254504 3.0636523
0.58207154 -1.4239383 3.0593758
0.61384743 -1.4257174 3.0545423
0.63846707 -1.4227866 3.0508599
-1.4845421 -1.3953336 2.8480551
0.53228891 -1.3980091 3.0668726
0.55367243 -1.3955197 3.0636523
0.58207154 -1.3940783 3.0593758
0.61384743 -1.3959373 3.0545423
0.63846713 -1.3930678 3.0508602
-1.4845423 -1.3655133 2.8480551
0.53228897 -1.3680249 3.0668724
0.55367255 -1.3655889 3.0636525
0.58207148 -1.3642187 3.0593755
0.61384749 -1.3661574 3.0545421
0.63846713 -1.363349 3.0508602
-1.4845421 -1.3356931 2.8480551
0.53228891 -1.3380408 3.0668726
0.55367243 -1.3356584 3.0636523
0.58269638 -1.3335217 3.0592823
0.61384737 -1.3363774 3.0545421
0.63846713 -1.3336302 3.0508602
-1.4845423 -1.3058727 2.8480551
0.53228891 -1.3080567 3.0668726
0.55367267 -1.3057276 3.0636525
0.58207148 -1.3026344 3.0593755
0.61384737 -1.3065975 3.0545421
0.63846713 -1.3039113 3.0508602
-1.4845421 -1.2760525 2.8480551
0.53228891 -1.2780726 3.0668726
0.55367243 -1.2757969 3.0636523
0.58207148 -1.2727746 3.0593755
0.61384737 -1.2768173 3.0545421
0.63846713 -1.2741926 3.0508602
-1.4845437 -1.2449903 2.8480551
0.53228891 -1.2480886 3.0668726
0.55367243 -1.2458662 3.0636523
0.58207154 -1.2429147 3.0593758
0.61384737 -1.2470373 3.0545421
0.63846713 -1.2444739 3.0508602
-1.4845421 -1.2139268 2.8480551
0.53228891 -1.2181045 3.0668726
0.55367243 -1.2159355 3.0636523
0.58207148 -1.213055 3.0593755
0.61317587 -1.2164383 3.0546424
0.63846713 -1.2147551 3.0508602
-1.4845421 -1.1841065 2.8480551
0.53228891 -1.1881204 3.0668726
0.55367243 -1.1860048 3.0636523
0.58207154 -1.183195 3.0593758
0.61384749 -1.1859866 3.0545421
0.63846719 -1.1850364 3.0508597
-1.4845423 -1.1542859 2.8480551
0.53228891 -1.1581361 3.0668726
0.55367267 -1.156074 3.0636525
0.58207148 -1.1533353 3.0593755
0.61384743 -1.1562066 3.0545423
0.63846713 -1.1553175 3.0508602
-1.4845421 -1.1244657 2.8480551
0.53228891 -1.1281521 3.0668726
0.55367243 -1.1261435 3.0636525
0.58207148 -1.1234754 3.0593755
0.61384737 -1.1264266 3.0545421
0.63846713 -1.1255988 3.0508602
-1.4845423 -1.0946453 2.8480551
0.53228891 -1.098168 3.0668726
0.55367243 -1.0962125 3.0636523
0.58207154 -1.0936159 3.0593758
0.61351216 -1.0958619 3.0545933
0.63846713 -1.0958799 3.0508602
-1.4845423 -1.0648251 2.8480551
0.53228891 -1.0681839 3.0668726
0.55367243 -1.0662819 3.0636523
0.58207148 -1.0637559 3.0593755
0.61384749 -1.0653768 3.0545421
0.63846713 -1.0661613 3.0508602
-1.4845421 -1.0350046 2.8480551
0.53228891 -1.0381997 3.0668726
0.55367243 -1.0363512 3.0636523
0.58207148 -1.0338961 3.0593755
0.61384737 -1.0355968 3.0545421
0.63846713 -1.0364424 3.0508602
-1.4845423 -1.0051844 2.8480551
0.53228891 -1.0082157 3.0668726
0.55367255 -1.0064204 3.0636525
0.58207148 -1.0040363 3.0593755
0.61384815 -1.005073 3.0545437
0.63846713 -1.0067236 3.0508602
-1.4845421 -0.97536397 2.8480551
0.53228891 -0.97823149 3.0668726
0.55367243 -0.97648972 3.0636523
0.58207148 -0.97417647 3.0593755
0.61384737 -0.9745478 3.0545421
0.63846713 -0.97700489 3.0508602
-1.4845421 -0.94554365 2.8480551
0.53228891 -0.94824749 3.0668726
0.55367243 -0.94655907 3.0636523
0.58207154 -0.94431669 3.0593758
0.61418289 -0.94406766 3.0544899
0.63846713 -0.94728613 3.0508602
-1.4845421 -0.91572326 2.8480551
0.53228897 -0.91826338 3.0668724
0.55367255 -0.91662824 3.0636525
0.58207154 -0.91445678 3.0593758
0.61384737 -0.91349965 3.0545421
0.63846713 -0.91756731 3.0508602
-1.4845421 -0.885903 2.8480551
0.53228891 -0.8882792 3.0668726
0.55367249 -0.88669753 3.063652
0.58207154 -0.88459694 3.0593758
0.61451787 -0.88306803 3.0544403
0.63846713 -0.8878485 3.0508602
-1.4845421 -0.85608262 2.8480544
0.53228891 -0.85829508 3.0668728
0.55367243 -0.85676676 3.0636523
0.58207148 -0.8547371 3.0593755
0.61384737 -0.8524524 3.0545421
0.63846713 -0.85812974 3.0508602
-1.4845421 -0.82626235 2.8480551
0.53228891 -0.82831109 3.0668726
0.55367243 -0.82683611 3.0636523
0.58207154 -0.82487738 3.0593758
0.61384737 -0.82267249 3.0545421
0.63807702 -0.82637334 3.0509176
-1.4845421 -0.79644203 2.8480551
0.53228891 -0.79832685 3.0668726
0.55367243 -0.7969054 3.0636525
0.58207148 -0.79501754 3.0593755
0.61384743 -0.79289234 3.0545423
0.63846713 -0.79497629 3.0508602
-1.4846768 -0.76535034 2.8471622
0.53228891 -0.76834279 3.0668728
0.55367243 -0.76697475 3.0636523
0.58207148 -0.76515776 3.0593755
0.61384737 -0.76311249 3.0545421
0.63885713 -0.76358235 3.0508027
-1.4845421 -0.73432577 2.8480551
0.53228891 -0.73835874 3.0668726
0.55367243 -0.73704386 3.0636523
0.58207166 -0.73529792 3.0593758
0.61384743 -0.73333234 3.0545423
0.63846713 -0.73182499 3.0508602
-1.4845423 -0.70450538 2.8480551
0.53228891 -0.70837456 3.0668726
0.55367243 -0.70711321 3.0636525
0.58207148 -0.70543808 3.0593755
0.61384743 -0.70355248 3.0545423
0.63846713 -0.70210618 3.0508602
-1.4845421 -0.674685 2.8480551
0.53228891 -0.6783905 3.0668726
0.55367249 -0.67718261 3.063652
0.58207148 -0.67557824 3.0593755
0.61384749 -0.67377251 3.0545421
0.63846707 -0.67238742 3.0508599
-1.4845421 -0.64486474 2.8480551
0.53228891 -0.64840633 3.0668726
0.55367243 -0.64725173 3.0636523
0.58207154 -0.64571846 3.0593758
0.61384737 -0.64399242 3.0545421
0.63846713 -0.6426686 3.0508602
-1.4845421 -0.61504447 2.8480551
0.53228891 -0.61842227 3.0668726
0.55367243 -0.61732101 3.0636523
0.58207148 -0.61585867 3.0593755
0.61384749 -0.61421239 3.0545421
0.63846713 -0.61294979 3.0508602
-1.4845421 -0.58522415 2.8480551
0.53228891 -0.58843815 3.0668726
0.55367255 -0.58739036 3.0636525
0.58207154 -0.58599889 3.0593758
0.61384737 -0.58443242 3.0545421
0.63846713 -0.58323103 3.0508602
-1.4845421 -0.55540377 2.8480551
0.53228891 -0.55845404 3.0668728
0.55367243 -0.55745965 3.0636525
0.58207136 -0.55613905 3.0593755
0.61384743 -0.55465239 3.0545423
0.63846707 -0.55351228 3.0508599
-1.4845424 -0.52558339 2.8480556
0.53228897 -0.52846998 3.0668724
0.55367255 -0.52752888 3.0636525
0.58207148 -0.52627921 3.0593755
0.61384737 -0.52487248 3.0545421
0.63846713 -0.52379346 3.0508602
-1.4845423 -0.49576303 2.8480551
0.53228897 -0.4984858 3.0668724
0.55367243 -0.49759817 3.0636525
0.58207148 -0.49641943 3.0593755
0.61384737 -0.49509248 3.0545421
0.63846713 -0.4940747 3.0508602
-1.4845421 -0.46594271 2.8480551
0.53228891 -0.46850172 3.0668726
0.55367243 -0.46766749 3.0636525
0.58207148 -0.46655962 3.0593755
0.61384749 -0.46531245 3.0545421
0.63846713 -0.46435592 3.0508602
-1.4845423 -0.43612239 2.8480554
0.53228891 -0.43851757 3.0668728
0.55367249 -0.43773678 3.063652
0.58207148 -0.43669978 3.0593755
0.61384737 -0.43553248 3.0545421
0.63846713 -0.43463716 3.0508602
-1.4845421 -0.40630209 2.8480551
0.53228891 -0.40853348 3.0668726
0.55367255 -0.40780607 3.0636525
0.58207148 -0.40683997 3.0593755
0.61384737 -0.40575248 3.0545421
0.63846707 -0.40491837 3.0508599
-1.4845421 -0.37648174 2.8480551
0.53228891 -0.37854937 3.0668726
0.55367243 -0.37787536 3.0636523
0.58207148 -0.37698016 3.0593755
0.61384737 -0.37597248 3.0545421
0.63846719 -0.37519959 3.0508597
-1.4845421 -0.34666139 2.8480551
0.53228891 -0.34856528 3.0668726
0.55367243 -0.34794462 3.0636523
0.58207154 -0.34712031 3.0593758
0.61384737 -0.34619248 3.0545421
0.63846713 -0.3454808 3.0508602
-1.4845421 -0.31684107 2.8480551
0.53228891 -0.31858116 3.0668726
0.55367243 -0.31801391 3.0636523
0.58207148 -0.31726053 3.0593755
0.61384743 -0.31641245 3.0545423
0.63846713 -0.31576204 3.0508602
-1.4845423 -0.28702074 2.8480551
0.53228891 -0.28859702 3.0668728
0.55367255 -0.28808317 3.0636525
0.58207148 -0.28740069 3.0593755
0.61384737 -0.28663248 3.0545421
0.63846713 -0.28604326 3.0508602
-1.4845423 -0.25720036 2.8480551
0.53228897 -0.25861296 3.0668724
0.55367243 -0.25815246 3.0636525
0.58207154 -0.25754091 3.0593758
0.61384737 -0.25685248 3.0545421
0.63846713 -0.25632447 3.0508602
-1.4845421 -0.22738002 2.8480551
0.53228891 -0.22862884 3.0668726
0.55367243 -0.22822173 3.0636525
0.58207148 -0.22768107 3.0593755
0.61384749 -0.22707248 3.0545421
0.63846713 -0.22660568 3.0508602
-1.4845421 -0.19755971 2.8480551
0.53228891 -0.19864473 3.0668726
0.55367255 -0.198291 3.0636525
0.58207154 -0.19782129 3.0593758
0.61384737 -0.19729246 3.0545421
0.63846707 -0.19688691 3.0508599
-1.4845423 -0.16773939 2.8480551
0.53228897 -0.16866061 3.0668724
0.55367243 -0.16836028 3.0636525
0.58207148 -0.16796145 3.0593755
0.61384749 -0.16751251 3.0545421
0.63846713 -0.16716814 3.0508602
-1.4845421 -0.13791907 2.8480551
0.53228891 -0.13867651 3.0668726
0.55367243 -0.1384296 3.0636525
0.58207148 -0.13810164 3.0593755
0.61384743 -0.13773251 3.0545423
0.63846713 -0.13744935 3.0508602
-1.4845421 -0.10809871 2.8480551
0.53228891 -0.10869239 3.0668726
0.55367243 -0.10849886 3.0636525
0.58207148 -0.10824183 3.0593755
0.61384737 -0.10795249 3.0545421
0.63846713 -0.10773057 3.0508602
-1.4845423 -0.078278378 2.8480551
0.53228891 -0.078708284 3.0668726
0.55367255 -0.078568138 3.0636525
0.58207154 -0.078382008 3.0593758
0.61384737 -0.078172497 3.0545421
0.63846713 -0.078011796 3.0508602
-1.4845423 -0.048458047 2.8480551
0.53228891 -0.048724178 3.0668728
0.55367255 -0.04863742 3.0636525
0.58207148 -0.0485222 3.0593755
0.61384737 -0.048392497 3.0545421
0.63846713 -0.048293017 3.0508602
-1.4845423 -0.018637709 2.8480549
0.53228891 -0.018740069 3.0668726
0.55367243 -0.018706698 3.0636523
0.58207154 -0.018662382 3.0593758
0.61384737 -0.018612498 3.0545421
0.63846707 -0.018574236 3.0508599
-1.4845423 0.014910167 2.8480551
0.53228891 0.014992054 3.0668726
0.55367267 0.01496536 3.0636525
0.58207148 0.014929908 3.0593755
0.61384732 0.014889998 3.0545425
0.63846713 0.014859389 3.0508602
-1.4845421 0.048458051 2.8480551
0.53228891 0.048724174 3.0668726
0.55367249 0.04863742 3.063652
0.58207154 0.0485222 3.0593758
0.61384737 0.048392493 3.0545421
0.63846719 0.048293017 3.0508597
-1.4845421 0.078278385 2.8480551
0.53228891 0.078708284 3.0668726
0.55367243 0.078568138 3.0636523
0.58207142 0.078382015 3.0593753
0.61384749 0.078172497 3.0545421
0.63846713 0.078011803 3.0508602
-1.4845423 0.10809872 2.8480549
0.53228891 0.10869239 3.0668726
0.55367255 0.10849885 3.0636523
0.58207148 0.10824185 3.0593755
0.61384749 0.10795249 3.0545421
0.63846713 0.10773057 3.0508602
-1.4845423 0.13791904 2.8480549
0.53228891 0.13867651 3.0668726
0.55367243 0.13842958 3.0636523
0.58207148 0.13810162 3.0593755
0.61384749 0.13773249 3.0545421
0.63846707 0.13744935 3.0508599
-1.4845423 0.16773939 2.8480551
0.53228891 0.16866061 3.0668726
0.55367243 0.16836029 3.0636525
0.58207154 0.16796143 3.0593758
0.61384737 0.16751249 3.0545421
0.63846713 0.16716814 3.0508602
-1.4845421 0.19755971 2.8480551
0.53228891 0.19864471 3.0668728
0.55367243 0.198291 3.0636523
0.58207154 0.19782127 3.0593758
0.61384737 0.19729248 3.0545421
0.63846713 0.19688691 3.0508602
-1.4845421 0.22738008 2.8480551
0.53228897 0.22862883 3.0668724
0.55367255 0.22822173 3.0636525
0.58207154 0.22768107 3.0593758
0.61384737 0.22707248 3.0545421
0.63846707 0.22660568 3.0508599
-1.4845421 0.25720039 2.8480551
0.53228891 0.25861293 3.0668726
0.55367243 0.25815246 3.0636523
0.58207148 0.25754091 3.0593755
0.61384737 0.25685251 3.0545421
0.63846713 0.25632447 3.0508602
-1.4845421 0.28702077 2.8480551
0.53228897 0.28859705 3.0668724
0.55367243 0.28808314 3.0636523
0.58207148 0.28740072 3.0593755
0.61384737 0.28663248 3.0545421
0.63846713 0.28604326 3.0508602
-1.4845423 0.31684107 2.8480551
0.53228891 0.31858116 3.0668728
0.55367243 0.31801388 3.0636525
0.58207154 0.31726053 3.0593758
0.61384761 0.31641248 3.0545418
0.63846719 0.31576201 3.0508597
-1.4845421 0.34666142 2.8480551
0.53228891 0.34856525 3.0668726
0.55367249 0.34794462 3.063652
0.58207154 0.34712034 3.0593758
0.61384726 0.34619245 3.0545421
0.63846713 0.34548083 3.0508602
-1.4845421 0.37648177 2.8480551
0.53228891 0.3785494 3.0668726
0.55367243 0.37787533 3.0636523
0.58207148 0.37698013 3.0593755
0.61384737 0.37597248 3.0545421
0.63846713 0.37519962 3.0508602
-1.4845421 0.40630206 2.8480551
0.53228891 0.40853348 3.0668728
0.55367255 0.4078061 3.0636525
0.58207148 0.40683994 3.0593755
0.61384743 0.40575242 3.0545423
0.63846713 0.40491837 3.0508602
-1.4845421 0.43612242 2.8480551
-1.4391719 0.44208771 2.8407731
0.53228891 0.4385176 3.0668726
0.55367243 0.43773675 3.0636523
0.58207154 0.43669978 3.0593758
0.61384737 0.43553242 3.0545421
0.63846713 0.43463716 3.0508602
-1.4845423 0.46594274 2.8480551
0.53228891 0.46850169 3.0668726
0.55367267 0.46766749 3.0636525
0.58207148 0.46655956 3.0593755
0.61384737 0.46531245 3.0545421
0.63846713 0.46435595 3.0508602
-1.4845421 0.49576303 2.8480551
0.53228891 0.4984858 3.0668726
0.55367243 0.4975982 3.0636523
0.58207136 0.4964194 3.0593755
0.61384737 0.49509245 3.0545421
0.63846719 0.4940747 3.0508597
-1.4845421 0.52558345 2.8480551
0.53228891 0.52846992 3.0668726
0.55367243 0.52752888 3.0636523
0.58207148 0.52627921 3.0593755
0.61384737 0.52487254 3.0545421
0.63846707 0.52379346 3.0508599
-1.4845421 0.55540377 2.8480551
0.53228891 0.55845404 3.0668726
0.55367255 0.55745965 3.0636523
0.58207166 0.55613905 3.0593758
0.61384737 0.55465245 3.0545421
0.63846707 0.55351222 3.0508599
-1.4845421 0.58522409 2.8480551
0.53228891 0.58843815 3.0668726
0.55367243 0.58739036 3.0636523
0.58207148 0.58599883 3.0593755
0.61384737 0.58443248 3.0545421
0.63846713 0.58323109 3.0508602
-1.4845421 0.61504447 2.8480551
0.53228891 0.61842227 3.0668726
0.55367243 0.61732101 3.0636525
0.58207166 0.61585873 3.0593758
0.61384726 0.61421239 3.0545421
0.63846713 0.61294979 3.0508602
-1.4845421 0.6448648 2.8480551
0.53228891 0.64840639 3.0668726
0.55367243 0.64725184 3.0636523
0.58207148 0.64571846 3.0593755
0.61384743 0.64399248 3.0545423
0.63846713 0.6426686 3.0508602
-1.4845423 0.67468512 2.8480554
0.53228891 0.67839044 3.0668726
0.55367243 0.67718256 3.0636523
0.58207154 0.6755783 3.0593758
0.61384749 0.67377245 3.0545421
0.63846713 0.67238742 3.0508602
-1.4845421 0.70450544 2.8480551
0.53228891 0.70837456 3.0668726
0.55367243 0.70711327 3.0636523
0.58207148 0.70543814 3.0593755
0.61384737 0.70355248 3.0545421
0.63846713 0.70210618 3.0508602
-1.4845423 0.73432577 2.8480551
0.53228897 0.73835874 3.0668724
0.55367243 0.73704398 3.0636523
0.58207154 0.73529792 3.0593758
0.61384737 0.73333246 3.0545421
0.63846713 0.73182493 3.0508602
-1.4846767 0.76535028 2.8471625
0.53228897 0.76834279 3.0668724
0.55367249 0.76697469 3.063652
0.58207148 0.76515776 3.0593755
0.61384737 0.76311243 3.0545421
0.63885719 0.76358229 3.0508025
-1.4845423 0.79644203 2.8480551
0.53228891 0.79832685 3.0668726
0.55367249 0.79690534 3.063652
0.58207154 0.79501754 3.0593758
0.61384749 0.7928924 3.0545421
0.63846707 0.79497623 3.0508599
-1.4845421 0.82626235 2.8480551
0.53228891 0.82831097 3.0668726
0.55367243 0.82683611 3.0636523
0.58207148 0.82487744 3.0593755
0.61384737 0.82267249 3.0545421
0.63807702 0.8263734 3.0509176
-1.4845423 0.85608262 2.8480551
0.53228891 0.85829514 3.0668726
0.55367243 0.85676682 3.0636523
0.58207148 0.8547371 3.0593755
0.61384732 0.8524524 3.0545423
0.63846713 0.8581298 3.0508602
-1.4845421 0.88590288 2.8480551
0.53228891 0.8882792 3.0668726
0.55367267 0.88669753 3.0636525
0.58207154 0.88459694 3.0593758
0.61451787 0.88306791 3.0544403
0.63846713 0.88784856 3.0508602
-1.4845423 0.91572326 2.8480551
0.53228891 0.91826338 3.0668726
0.55367243 0.91662824 3.0636525
0.58207154 0.91445684 3.0593758
0.61384737 0.91349965 3.0545421
0.63846713 0.91756725 3.0508602
-1.4845423 0.94554365 2.8480551
0.53228891 0.94824743 3.0668726
0.55367255 0.94655895 3.0636525
0.58207148 0.94431663 3.0593755
0.61418295 0.94406772 3.0544896
0.63846713 0.94728607 3.0508602
-1.4845421 0.97536391 2.8480551
0.53228897 0.97823149 3.0668724
0.55438411 0.97668064 3.0635428
0.58207136 0.97417647 3.0593755
0.61384749 0.97454768 3.0545421
0.63846713 0.97700489 3.0508602
-1.4845423 1.0051844 2.8480551
0.53228891 1.0082157 3.0668726
0.55367249 1.0064204 3.063652
0.58207148 1.0040362 3.0593755
0.61384815 1.0050727 3.0545435
0.63846713 1.0067236 3.0508602
-1.4845423 1.0350046 2.8480554
0.53228891 1.0381998 3.0668726
0.55367243 1.0363512 3.0636523
0.58207148 1.0338961 3.0593755
0.61384737 1.0355968 3.0545421
0.63846713 1.0364424 3.0508602
-1.4845421 1.0648251 2.8480551
0.53228891 1.068184 3.0668726
0.55438405 1.0659682 3.0635431
0.58207148 1.0637558 3.0593755
0.61384749 1.0653768 3.0545421
0.63846713 1.0661613 3.0508602
-1.4845421 1.0946454 2.8480551
0.53228891 1.0981679 3.0668726
0.55367243 1.0962125 3.0636525
0.58207148 1.0936157 3.0593755
0.61351228 1.0958619 3.0545928
0.63846713 1.09588 3.0508602
-1.4845421 1.1244657 2.8480551
0.53228891 1.1281521 3.0668726
0.55367255 1.1261433 3.0636525
0.58207154 1.1234754 3.0593758
0.61384749 1.1264267 3.0545421
0.63846713 1.1255988 3.0508602
-1.4845423 1.1542861 2.8480551
0.53228891 1.1581361 3.0668726
0.55367255 1.156074 3.0636525
0.58207142 1.1533353 3.0593753
0.61384737 1.1562067 3.0545421
0.63846707 1.1553175 3.0508599
-1.4845423 1.1841063 2.8480551
0.53228891 1.1881204 3.0668726
0.55367243 1.1860048 3.0636525
0.58207041 1.183193 3.0593698
0.61384737 1.1859866 3.0545421
0.6384626 1.1850277 3.0508378
-1.4845421 1.2139267 2.8480551
0.53228891 1.2181046 3.0668726
0.55367243 1.2159353 3.0636525
0.58206719 1.2130461 3.0593534
0.61317587 1.2164383 3.0546424
0.63845801 1.2147374 3.0508156
-1.4845437 1.2449903 2.8480551
0.53228891 1.2480886 3.0668726
0.55367249 1.2458661 3.063652
0.58206731 1.2429057 3.0593531
0.61384737 1.2470373 3.0545421
0.63845801 1.2444558 3.0508156
-1.4845421 1.2760522 2.8480551
0.53228891 1.2780726 3.0668726
0.55367249 1.275797 3.063652
0.58206731 1.2727652 3.0593531
0.61384737 1.2768173 3.0545421
0.63845801 1.2741741 3.0508156
-1.4845421 1.3058727 2.8480551
0.53228891 1.3080567 3.0668726
0.55367243 1.3057276 3.0636523
0.58206731 1.3026248 3.0593531
0.61384743 1.3065974 3.0545423
0.63845789 1.3038924 3.0508158
-1.4845421 1.3356931 2.8480551
0.53228891 1.3380407 3.0668726
0.55367255 1.3356583 3.0636525
0.58269238 1.3335124 3.0592616
0.61384749 1.3363775 3.0545421
0.63845801 1.3336109 3.0508156
-1.4740373 1.3517578 2.8449857
-1.4460578 1.3517752 2.8490095
-1.416415 1.3517751 2.8519835
-1.3867724 1.3517752 2.8549583
-1.3571299 1.3517752 2.8579321
-1.3274873 1.3517752 2.8609066
-1.2978446 1.3517751 2.8638809
-1.2682021 1.3517751 2.8668547
-1.2385596 1.3517753 2.8698292
-1.208917 1.3517752 2.872803
-1.1792744 1.3517752 2.8757775
-1.1496319 1.3517752 2.8787515
-1.1199893 1.3517752 2.8817258
-1.0903467 1.3517752 2.8846998
-1.058738 1.3517748 2.8869541
-1.0273665 1.3517752 2.8910186
-0.99772382 1.3517753 2.8939929
-0.96808118 1.3517752 2.8969672
-0.93843877 1.3517752 2.8999412
-0.90879607 1.3517751 2.9029155
-0.87915349 1.3517753 2.9058897
-0.84951079 1.3517752 2.9088638
-0.81986833 1.3517752 2.9118383
-0.79022586 1.3517751 2.9148123
-0.76058316 1.3517752 2.9177866
-0.73094064 1.3517751 2.9207606
-0.701298 1.3517752 2.9237349
-0.67165542 1.3517752 2.9267089
-0.64201283 1.3517751 2.9296834
-0.61237031 1.3517752 2.9326572
-0.58272767 1.3517751 2.9356318
-0.55308509 1.3517753 2.9386055
-0.52344251 1.3517752 2.9415798
-0.49379995 1.3517752 2.9445543
-0.46415737 1.3517751 2.9475281
-0.43451476 1.3517753 2.9505024
-0.40487221 1.3517753 2.9534767
-0.37522969 1.3517751 2.9564509
-0.34558707 1.3517753 2.959425
-0.31594446 1.3517752 2.9623992
-0.28259656 1.3517751 2.965745
-0.24924868 1.3517752 2.9690912
-0.21960598 1.3517752 2.9720652
-0.18996352 1.3517751 2.9750395
-0.16032085 1.3517752 2.9780138
-0.13067833 1.3517753 2.980988
-0.10103574 1.3517752 2.9839621
-0.071393192 1.3517752 2.9869361
-0.04175058 1.3517752 2.9899104
-0.012107968 1.3517753 2.9928844
0.017534524 1.3517751 2.9958589
0.047177076 1.3517751 2.9988329
0.076819658 1.3517752 3.0018075
0.10646226 1.3517752 3.0047812
0.13610488 1.3517752 3.0077558
0.16574751 1.3517752 3.0107298
0.19539008 1.3517752 3.0137038
0.22503269 1.3517752 3.0166781
0.25467512 1.3517752 3.0196521
0.28431773 1.3517752 3.0226264
0.31396043 1.3517753 3.0256007
0.34360299 1.3517752 3.0285745
0.37324548 1.3517751 3.0315487
0.40288821 1.3517752 3.034523
0.43253064 1.3517752 3.037497
0.46408448 1.3517748 3.039746
0.49551111 1.3517753 3.0438163
0.52515352 1.3517753 3.0467906
0.55479622 1.3517753 3.0497649
0.58306742 1.3515939 3.0510204
0.6160934 1.3517716 3.0476592
0.63826406 1.3517716 3.0498829
-1.4786468 -1.8072542 2.8873005
0.41328946 -1.8093517 3.0848751
0.4302586 -1.8093466 3.0823321
0.46096346 -1.8065447 3.0776887
0.48928976 -1.8055295 3.0734177
0.51441103 -1.8017454 3.0696001
-1.4792396 -1.7835464 2.8833296
0.41328946 -1.7828548 3.0848751
0.43146935 -1.7858567 3.0821493
0.46044725 -1.7834568 3.0777609
0.48928988 -1.7867219 3.0734177
0.51441103 -1.7829775 3.0696003
-1.4792396 -1.7533807 2.8833296
0.41328946 -1.7525727 3.0848751
0.43146935 -1.7556201 3.0821493
0.46044728 -1.7532928 3.0777612
0.48928988 -1.7566298 3.0734177
0.51441139 -1.7529482 3.0695999
-1.4792396 -1.7232145 2.8833296
0.41328946 -1.7222906 3.0848751
0.43219593 -1.7264143 3.0820389
0.46044719 -1.7231283 3.0777617
0.48928988 -1.7265376 3.0734177
0.51441115 -1.7229192 3.0696001
-1.4792395 -1.6930484 2.8833292
0.41328946 -1.6920086 3.0848751
0.43146944 -1.6970383 3.082149
0.46044713 -1.6929642 3.0777609
0.48928988 -1.6964455 3.0734177
0.51441103 -1.69289 3.0696001
-1.4792395 -1.6628827 2.8833292
0.41328946 -1.6617265 3.0848751
0.43146944 -1.6668012 3.082149
0.46044728 -1.6628001 3.0777612
0.48928988 -1.6663532 3.0734177
0.51441103 -1.6628609 3.0696003
-1.4792395 -1.6327162 2.8833292
0.41328946 -1.6314445 3.0848751
0.43146947 -1.6365645 3.0821493
0.45972466 -1.6334866 3.0778694
0.48928976 -1.6362611 3.0734177
0.51441103 -1.6328318 3.0696003
-1.4794014 -1.6037047 2.8822451
0.41328946 -1.6049478 3.0848751
0.43146944 -1.6063279 3.082149
0.46044725 -1.6043552 3.0777609
0.48928988 -1.606169 3.0734177
0.51441103 -1.6028026 3.0696001
-1.4792395 -1.574908 2.8833292
0.41328946 -1.5784509 3.0848751
0.43146947 -1.5760909 3.0821493
0.4604474 -1.5741911 3.0777612
0.48928976 -1.5760769 3.0734177
0.51441103 -1.5727737 3.0696001
-1.4792396 -1.5447421 2.8833296
0.41328946 -1.548169 3.0848751
0.43146944 -1.5458541 3.082149
0.46044728 -1.5440269 3.0777612
0.48928976 -1.5459846 3.0734177
0.51441115 -1.5427444 3.0696001
-1.4792396 -1.514576 2.8833296
0.41328946 -1.5178869 3.0848751
0.43146947 -1.5156176 3.0821495
0.46044713 -1.5138627 3.0777609
0.48928976 -1.5158925 3.0734177
0.51441115 -1.5127153 3.0696001
-1.4792396 -1.48441 2.8833296
0.41328946 -1.487605 3.0848751
0.43146944 -1.4853808 3.082149
0.46044725 -1.4836987 3.0777609
0.48928988 -1.4858004 3.0734177
0.51441103 -1.4826863 3.0696001
-1.4792395 -1.454244 2.8833292
0.41328946 -1.4573228 3.0848751
0.43146956 -1.4551439 3.082149
0.46020612 -1.4544433 3.0777981
0.48928988 -1.4557081 3.0734177
0.51441115 -1.4526575 3.0696001
-1.4792395 -1.4240779 2.8833292
0.41328946 -1.4270408 3.0848751
0.43146956 -1.4249072 3.082149
0.46044713 -1.4252551 3.0777609
0.48928988 -1.425616 3.0734177
0.51441103 -1.4226282 3.0696003
-1.4792396 -1.3939118 2.8833296
0.41328946 -1.3967588 3.0848751
0.43146944 -1.3946705 3.082149
0.46044713 -1.3950907 3.0777609
0.48928976 -1.395524 3.0734177
0.51441103 -1.3925991 3.0696001
-1.4792392 -1.3650031 2.8833323
0.41328946 -1.3664768 3.0848751
0.43146944 -1.3644338 3.082149
0.46044725 -1.3649267 3.0777609
0.48928988 -1.3654317 3.0734177
0.51441103 -1.36257 3.0696003
-1.4792396 -1.3360937 2.8833296
0.41328946 -1.3361948 3.0848751
0.43146935 -1.334197 3.0821493
0.46044725 -1.3347623 3.0777609
0.48928976 -1.3353395 3.0734177
0.51441103 -1.3325409 3.0696001
-1.4792396 -1.3059276 2.8833296
0.41328946 -1.3059127 3.0848751
0.43146935 -1.3039602 3.0821495
0.46068817 -1.3055788 3.0777273
0.48928988 -1.3052473 3.0734177
0.51441103 -1.3025117 3.0696001
-1.4792396 -1.2757616 2.8833296
0.41328946 -1.2756307 3.0848751
0.43146935 -1.2737234 3.0821493
0.4604474 -1.27632 3.0777612
0.48928982 -1.2751554 3.0734172
0.51441115 -1.2724828 3.0695999
-1.4792396 -1.2455957 2.8833296
0.41328946 -1.2453487 3.0848751
0.43146935 -1.2434865 3.0821493
0.46044728 -1.2461556 3.0777612
0.48928976 -1.2450631 3.0734177
0.51441103 -1.2424537 3.0696003
-1.4792396 -1.2154295 2.8833296
0.41328946 -1.2150667 3.0848751
0.43146959 -1.2132498 3.0821493
0.46044728 -1.2159915 3.0777612
0.48928988 -1.2149708 3.0734177
0.51441115 -1.2124245 3.0695999
-1.4792396 -1.1852634 2.8833296
0.41328946 -1.1847845 3.0848751
0.43146935 -1.1830132 3.0821493
0.46116984 -1.1868876 3.0776503
0.48928988 -1.1848788 3.0734177
0.51441115 -1.1823955 3.0696001
-1.4792396 -1.1550975 2.8833296
0.41328946 -1.1545025 3.0848751
0.43146959 -1.1527765 3.0821493
0.46044728 -1.1575501 3.0777612
0.48928988 -1.1547865 3.0734177
0.51441103 -1.1523664 3.0696001
-1.4792396 -1.1249316 2.8833296
0.41328946 -1.1242205 3.0848751
0.43146947 -1.1225396 3.0821493
0.46044716 -1.127386 3.0777612
0.48928976 -1.1246945 3.0734177
0.51441103 -1.1223373 3.0696003
-1.4792396 -1.0947654 2.8833296
0.41328946 -1.0939385 3.0848751
0.43074346 -1.0931239 3.0822594
0.46044725 -1.0972219 3.0777609
0.48928988 -1.0946023 3.0734177
0.51441115 -1.0923082 3.0696001
-1.4792396 -1.0645994 2.8833296
0.41328946 -1.0636564 3.0848751
0.43146947 -1.0639541 3.0821493
0.46044713 -1.0670576 3.0777609
0.48928976 -1.0645101 3.0734177
0.51441115 -1.0622791 3.0696001
-1.4792396 -1.0344336 2.8833296
0.41328946 -1.0333743 3.0848751
0.43146944 -1.0337175 3.082149
0.46044728 -1.0368936 3.0777612
0.48928976 -1.0344181 3.0734177
0.51441103 -1.03225 3.0696001
-1.4792396 -1.0042675 2.8833296
0.41328946 -1.0030924 3.0848751
0.4312273 -1.0043831 3.0821884
0.46044728 -1.0067294 3.0777612
0.48928988 -1.0043259 3.0734177
0.51441103 -1.002221 3.0696003
-1.4792396 -0.97410142 2.8833296
0.41328946 -0.97281033 3.0848751
0.43146947 -0.97513312 3.0821493
0.46044728 -0.97656518 3.0777612
0.48928988 -0.97423363 3.0734177
0.51441103 -0.97219181 3.0696003
-1.4792396 -0.94393533 2.8833296
0.41328946 -0.94252831 3.0848751
0.43146935 -0.94489628 3.0821493
0.46044725 -0.94640106 3.0777609
0.48928988 -0.94414151 3.0734177
0.51441103 -0.94216269 3.0696003
-1.4792396 -0.91376936 2.8833296
0.41328946 -0.91224623 3.0848751
0.43171105 -0.91564888 3.0821104
0.46044728 -0.91623682 3.0777612
0.48928988 -0.91404927 3.0734177
0.51441103 -0.91213357 3.0696001
-1.4792396 -0.88360327 2.8833296
0.41328946 -0.88196427 3.0848751
0.43146935 -0.8863132 3.0821493
0.46044725 -0.88607264 3.0777609
0.48928976 -0.88395715 3.0734177
0.51441115 -0.88210452 3.0696001
-1.4792396 -0.8534373 2.8833296
0.41328946 -0.85168219 3.0848751
0.43219584 -0.85715979 3.0820391
0.46044722 -0.85590845 3.0777607
0.48928976 -0.85386497 3.0734177
0.51441103 -0.85207552 3.0696001
-1.4792393 -0.82327139 2.8833294
0.41328946 -0.82140017 3.0848751
0.43146956 -0.82773125 3.082149
0.46044728 -0.82574427 3.0777612
0.48928988 -0.82377285 3.0734177
0.51441103 -0.8220464 3.0696001
-1.4794014 -0.79431611 2.8822451
0.41328946 -0.79490346 3.0848751
0.43146947 -0.79749453 3.0821493
0.46044725 -0.79558015 3.0777609
0.48928988 -0.79368073 3.0734177
0.51441139 -0.79201734 3.0695999
-1.4792396 -0.76546282 2.8833296
0.41328946 -0.76840663 3.0848751
0.43146959 -0.76725769 3.0821493
0.46044728 -0.76541591 3.0777612
0.48928988 -0.76358849 3.0734177
0.51441103 -0.76198828 3.0696003
-1.4792395 -0.73529685 2.8833292
0.41328946 -0.73812461 3.0848751
0.43146944 -0.73702097 3.082149
0.46044716 -0.73525178 3.0777612
0.48928988 -0.73349643 3.0734177
0.51441115 -0.7319591 3.0696001
-1.4792396 -0.70513076 2.8833296
0.41328946 -0.70784253 3.0848751
0.43146935 -0.70678419 3.0821493
0.46044725 -0.70508766 3.0777609
0.48928988 -0.70340431 3.0734177
0.51441103 -0.70192999 3.0696001
-1.4792396 -0.67496479 2.8833296
0.41328946 -0.67756045 3.0848751
0.43146956 -0.67654747 3.082149
0.46044725 -0.67492342 3.0777609
0.48928988 -0.67331207 3.0734177
0.51441103 -0.67190093 3.0696001
-1.4792396 -0.6447987 2.8833296
0.41328946 -0.64727849 3.0848751
0.43050712 -0.64560461 3.0822957
0.46044728 -0.64475924 3.0777612
0.48928988 -0.64321983 3.0734177
0.51441103 -0.64187181 3.0696001
-1.4792396 -0.61463267 2.8833296
0.41328946 -0.61699641 3.0848751
0.43146935 -0.61607397 3.0821493
0.46044725 -0.61459506 3.0777609
0.48928988 -0.61312777 3.0734177
0.51441103 -0.61184263 3.0696001
-1.4792396 -0.58446664 2.8833296
0.41328946 -0.58671439 3.0848751
0.43146935 -0.58583719 3.0821493
0.46044728 -0.58443093 3.0777612
0.48928988 -0.58303553 3.0734177
0.51441103 -0.58181357 3.0696001
-1.4792396 -0.55430067 2.8833296
0.41328946 -0.55643237 3.0848751
0.43146947 -0.5556004 3.0821495
0.46044725 -0.55426663 3.0777609
0.48928976 -0.55294347 3.0734177
0.51441115 -0.55178452 3.0696001
-1.4792396 -0.52413464 2.8833296
0.41328946 -0.52615035 3.0848751
0.43146947 -0.52536368 3.0821493
0.46044728 -0.52410251 3.0777612
0.48928976 -0.52285123 3.0734177
0.51441115 -0.52175546 3.0696001
-1.4792396 -0.49396861 2.8833296
0.41328946 -0.49586833 3.0848751
0.43146947 -0.4951269 3.0821493
0.46044728 -0.49393836 3.0777612
0.48928988 -0.49275905 3.0734177
0.51441103 -0.49172634 3.0696003
-1.4792396 -0.46380264 2.8833296
0.41328946 -0.46558625 3.0848751
0.43146947 -0.46489021 3.0821493
0.4604474 -0.46377414 3.0777612
0.48928988 -0.46266696 3.0734177
0.51441115 -0.46169728 3.0696001
-1.4792396 -0.43363655 2.8833296
0.41328946 -0.43530422 3.0848751
0.43146944 -0.43465346 3.082149
0.46044728 -0.43360999 3.0777612
0.48928988 -0.43257475 3.0734177
0.51441115 -0.43166816 3.0696001
-1.4792396 -0.40347058 2.8833296
0.41328946 -0.4050222 3.0848751
0.43146947 -0.40441662 3.0821493
0.46044728 -0.40344587 3.0777612
0.48928982 -0.40248263 3.0734172
0.51441115 -0.4016391 3.0696001
-1.4792396 -0.37330455 2.8833296
0.41328946 -0.37474018 3.0848751
0.43146959 -0.3741799 3.0821493
0.46044725 -0.37328163 3.0777609
0.48928988 -0.37239048 3.0734177
0.51441103 -0.37161002 3.0696001
-1.4792396 -0.34313852 2.8833296
0.41328946 -0.3444581 3.0848751
0.43146944 -0.34394312 3.082149
0.46044713 -0.34311751 3.0777609
0.48928988 -0.3422983 3.0734177
0.51441103 -0.34158093 3.0696001
-1.4792396 -0.31297249 2.8833296
0.41328946 -0.31417611 3.0848751
0.43146935 -0.31370634 3.0821493
0.46044728 -0.31295332 3.0777612
0.48928988 -0.31220615 3.0734177
0.51441115 -0.31155184 3.0696001
-1.4792396 -0.28280646 2.8833296
0.41328946 -0.28389406 3.0848751
0.43146944 -0.28346962 3.082149
0.46044713 -0.28278911 3.0777609
0.48928988 -0.28211397 3.0734177
0.51441115 -0.28152275 3.0695999
-1.4792396 -0.25264046 2.8833296
0.41328946 -0.25361204 3.0848751
0.43146947 -0.25323284 3.0821495
0.46044725 -0.25262496 3.0777609
0.48928988 -0.25202185 3.0734177
0.51441103 -0.25149363 3.0696001
-1.4792396 -0.22247443 2.8833296
0.41328946 -0.22332999 3.0848751
0.43146947 -0.22299609 3.0821495
0.46044725 -0.22246078 3.0777609
0.48928988 -0.22192967 3.0734177
0.51441103 -0.22146454 3.0696001
-1.4792396 -0.19230841 2.8833296
0.41328946 -0.19304797 3.0848751
0.43146935 -0.19275934 3.0821493
0.46044728 -0.19229662 3.0777612
0.48928976 -0.19183752 3.0734181
0.51441115 -0.19143546 3.0695999
-1.4792396 -0.16214237 2.8833296
0.41328946 -0.16276592 3.0848751
0.43146944 -0.16252255 3.082149
0.46044725 -0.16213244 3.0777609
0.48928988 -0.16174535 3.0734177
0.51441115 -0.16140637 3.0696001
-1.4792395 -0.13197635 2.8833292
0.41328946 -0.1324839 3.0848751
0.43146935 -0.13228582 3.0821495
0.46044728 -0.13196826 3.0777612
0.48928976 -0.13165319 3.0734177
0.51441103 -0.13137726 3.0696001
-1.4792396 -0.10181033 2.8833296
0.41328946 -0.10220186 3.0848751
0.43146947 -0.10204907 3.0821493
0.46044725 -0.10180409 3.0777609
0.48928988 -0.10156104 3.0734177
0.51441115 -0.10134819 3.0696001
-1.4792396 -0.071644306 2.8833296
0.41328946 -0.071919829 3.0848751
0.43146935 -0.071812302 3.0821493
0.46044713 -0.07163991 3.0777609
0.48928988 -0.071468882 3.0734177
0.51441103 -0.071319096 3.0696001
-1.4792396 -0.04147828 2.8833296
0.41328946 -0.041637797 3.0848751
0.43146947 -0.04157554 3.0821493
0.46044728 -0.041475739 3.0777612
0.48928988 -0.041376717 3.0734177
0.51441091 -0.04129 3.0696003
-1.4792393 -0.015083012 2.8833294
0.41328946 -0.015141017 3.0848751
0.43146944 -0.015118378 3.082149
0.46044728 -0.015082087 3.0777612
0.48928988 -0.015046079 3.0734177
0.51441115 -0.015014544 3.0696001
-1.4792395 0.011312257 2.8833292
0.41328946 0.011355762 3.0848751
0.43146935 0.011338783 3.0821493
0.46044728 0.011311566 3.0777612
0.48928988 0.011284559 3.0734177
0.51441103 0.011260908 3.0696003
-1.4792395 0.041478284 2.8833292
0.41328946 0.041637797 3.0848751
0.43146944 0.041575544 3.082149
0.46044713 0.041475739 3.0777609
0.48928988 0.041376717 3.0734177
0.51441103 0.04129 3.0696001
-1.4792396 0.071644306 2.8833296
0.41328946 0.071919829 3.0848751
0.43146947 0.071812294 3.0821493
0.46044716 0.071639918 3.0777612
0.48928988 0.071468875 3.0734177
0.51441103 0.071319088 3.0696003
-1.4792396 0.10181033 2.8833296
0.41328946 0.10220186 3.0848751
0.43146947 0.10204907 3.0821493
0.46044713 0.10180409 3.0777609
0.48928988 0.10156104 3.0734177
0.51441103 0.10134818 3.0696003
-1.4792396 0.13197635 2.8833296
0.41328946 0.1324839 3.0848751
0.43146947 0.13228582 3.0821493
0.46068829 0.1317143 3.0777273
0.48928988 0.1316532 3.0734177
0.51441103 0.13137728 3.0696001
-1.4792396 0.16214237 2.8833296
0.41328946 0.16276594 3.0848751
0.43146947 0.16252257 3.0821493
0.46044728 0.16213244 3.0777612
0.48928976 0.16174534 3.0734177
0.51441103 0.16140637 3.0696003
-1.4792396 0.1923084 2.8833296
0.41328946 0.19304797 3.0848751
0.43146935 0.19275934 3.0821493
0.46044725 0.19229659 3.0777609
0.48928976 0.1918375 3.0734177
0.51441115 0.19143544 3.0696001
-1.4792396 0.22247443 2.8833296
0.41328946 0.22332999 3.0848751
0.43146935 0.22299609 3.0821493
0.46044713 0.22246078 3.0777609
0.48928988 0.22192965 3.0734177
0.51441103 0.22146454 3.0696001
-1.4792395 0.25264046 2.8833292
0.41328946 0.25361204 3.0848751
0.43146944 0.25323281 3.082149
0.46044713 0.25262496 3.0777609
0.48928988 0.25202182 3.0734177
0.51441103 0.25149363 3.0696001
-1.4792396 0.28280646 2.8833296
0.41328946 0.28389406 3.0848751
0.43146947 0.28346962 3.0821493
0.46044728 0.28278917 3.0777612
0.48928988 0.282114 3.0734177
0.51441103 0.28152272 3.0696001
-1.4792395 0.31297249 2.8833292
0.41328946 0.31417611 3.0848751
0.43146956 0.31370637 3.082149
0.46044725 0.31295329 3.0777609
0.48928988 0.31220612 3.0734177
0.51441115 0.31155181 3.0696001
-1.4792396 0.34313852 2.8833296
0.41328946 0.3444581 3.0848751
0.43146947 0.34394312 3.0821493
0.46044728 0.34311751 3.0777612
0.48928988 0.3422983 3.0734177
0.51441103 0.34158087 3.0696003
-1.4792396 0.37330455 2.8833296
0.41328946 0.37474015 3.0848751
0.43146935 0.3741799 3.0821493
0.46044716 0.37328163 3.0777612
0.48928988 0.37239045 3.0734177
0.51441103 0.37161002 3.0696003
-1.4792396 0.40347058 2.8833296
0.41328946 0.4050222 3.0848751
0.43146947 0.40441662 3.0821493
0.46044725 0.40344587 3.0777609
0.48928988 0.4024826 3.0734177
0.51441103 0.4016391 3.0696003
-1.4792395 0.43363655 2.8833292
0.41328946 0.43530422 3.0848751
0.43146947 0.4346534 3.0821493
0.46044713 0.43360999 3.0777609
0.48928988 0.43257478 3.0734181
0.51441103 0.43166822 3.0696001
-1.4792395 0.46380264 2.8833292
0.41328946 0.46558627 3.0848751
0.43146935 0.46489018 3.0821493
0.46044728 0.46377414 3.0777612
0.48928988 0.46266696 3.0734177
0.51441115 0.46169728 3.0696001
-1.4792396 0.49396858 2.8833296
0.41328946 0.49586833 3.0848751
0.43146944 0.4951269 3.082149
0.46044725 0.49393839 3.0777609
0.48928988 0.49275911 3.0734177
0.51441103 0.49172637 3.0696001
-1.4792396 0.52413464 2.8833296
0.41328946 0.52615035 3.0848751
0.43146935 0.52536368 3.0821493
0.46044728 0.52410257 3.0777612
0.48928976 0.52285129 3.0734177
0.51441103 0.52175546 3.0696003
-1.4792395 0.55430067 2.8833292
0.41328946 0.55643237 3.0848751
0.43146947 0.55560046 3.0821493
0.4604474 0.55426669 3.0777612
0.48928976 0.55294347 3.0734177
0.51441103 0.55178452 3.0696003
-1.4792396 0.58446664 2.8833296
0.41328946 0.58671439 3.0848751
0.43146935 0.58583724 3.0821493
0.46044725 0.58443093 3.0777609
0.48928988 0.58303553 3.0734177
0.51441103 0.58181363 3.0696001
-1.4792396 0.61463267 2.8833296
0.41328946 0.61699641 3.0848751
0.43146935 0.61607391 3.0821495
0.46044716 0.61459512 3.0777612
0.48928988 0.61312771 3.0734177
0.51441139 0.61184275 3.0695999
-1.4792396 0.64479876 2.8833296
0.41328946 0.64727849 3.0848751
0.43146944 0.64631069 3.082149
0.46044728 0.64475924 3.0777612
0.48928988 0.64321989 3.0734177
0.51441103 0.64187181 3.0696001
-1.4792396 0.67496479 2.8833296
0.41328946 0.67756045 3.0848751
0.43146935 0.67654753 3.0821493
0.46044725 0.67492342 3.0777609
0.48928988 0.67331201 3.0734177
0.51441103 0.67190093 3.0696001
-1.4792396 0.70513076 2.8833296
0.41328946 0.70784253 3.0848751
0.43146944 0.70678419 3.082149
0.46044725 0.70508754 3.0777609
0.48928988 0.70340425 3.0734177
0.51441103 0.70192999 3.0696003
-1.4792396 0.73529673 2.8833296
0.41328946 0.73812461 3.0848751
0.43146944 0.73702103 3.082149
0.46044725 0.73525172 3.0777609
0.48928988 0.73349643 3.0734177
0.51441115 0.73195904 3.0695999
-1.4792396 0.76546282 2.8833296
0.41328946 0.76840657 3.0848751
0.43146935 0.76725769 3.0821493
0.46044728 0.76541591 3.0777612
0.48928988 0.76358855 3.0734177
0.51441115 0.7619881 3.0695999
-1.4794014 0.79431611 2.8822451
0.41328946 0.79490346 3.0848751
0.43146944 0.79749453 3.082149
0.4604471 0.79558009 3.0777607
0.48928976 0.79368073 3.0734177
0.51441103 0.79201722 3.0696001
-1.4792396 0.82327127 2.8833296
0.41328946 0.82140017 3.0848751
0.43146947 0.82773125 3.0821493
0.46044728 0.82574439 3.0777612
0.48928988 0.82377279 3.0734177
0.51441103 0.8220464 3.0696001
-1.4792395 0.85343736 2.8833292
0.41328946 0.85168219 3.0848751
0.43219593 0.85715979 3.0820389
0.46044728 0.85590845 3.0777612
0.48928988 0.85386497 3.0734177
0.51441115 0.85207552 3.0695999
-1.4792396 0.88360327 2.8833296
0.41328946 0.88196427 3.0848751
0.43146944 0.8863132 3.082149
0.46044713 0.88607258 3.0777609
0.48928988 0.88395715 3.0734177
0.51441103 0.88210464 3.0696001
-1.4792396 0.91376936 2.8833296
0.41328946 0.91224623 3.0848751
0.43171093 0.91564876 3.0821104
0.46044728 0.91623676 3.0777612
0.48928988 0.91404933 3.0734177
0.51441103 0.91213363 3.0696001
-1.4792396 0.94393539 2.8833296
0.41328946 0.94252831 3.0848751
0.43146959 0.9448964 3.0821493
0.46044725 0.94640094 3.0777609
0.48928988 0.94414151 3.0734177
0.51441103 0.94216269 3.0696001
-1.4792396 0.97410142 2.8833296
0.41328946 0.97281033 3.0848751
0.43146959 0.97513318 3.0821493
0.46044725 0.97656512 3.0777609
0.48928988 0.97423369 3.0734177
0.51441103 0.97219181 3.0696001
-1.4792395 1.0042675 2.8833292
0.41328946 1.0030924 3.0848751
0.4312273 1.0043831 3.0821884
0.46044716 1.0067294 3.0777612
0.48928982 1.0043257 3.0734172
0.51441103 1.002221 3.0696001
-1.4792396 1.0344334 2.8833296
0.41328946 1.0333744 3.0848751
0.43146944 1.0337174 3.082149
0.46044728 1.0368935 3.0777612
0.48928988 1.034418 3.0734177
0.51441115 1.0322499 3.0695999
-1.4792396 1.0645995 2.8833296
0.41328946 1.0636564 3.0848751
0.43146944 1.0639542 3.082149
0.46044716 1.0670577 3.0777612
0.48928988 1.06451 3.0734177
0.51441115 1.0622791 3.0695999
-1.4792395 1.0947654 2.8833292
0.41328946 1.0939385 3.0848751
0.43074355 1.0931239 3.0822592
0.46044725 1.0972219 3.0777609
0.48928988 1.0946023 3.0734177
0.51441091 1.0923082 3.0695999
-1.4792396 1.1249315 2.8833296
0.41328946 1.1242205 3.0848751
0.43146959 1.1225396 3.0821493
0.46044725 1.127386 3.0777609
0.48928988 1.1246945 3.0734177
0.51441103 1.1223373 3.0696003
-1.4792396 1.1550976 2.8833296
0.41328946 1.1545025 3.0848751
0.43146935 1.1527765 3.0821495
0.46044728 1.1575501 3.0777612
0.48928988 1.1547866 3.0734177
0.51441103 1.1523664 3.0696001
-1.4792396 1.1852635 2.8833296
0.41328946 1.1847845 3.0848751
0.43146935 1.1830133 3.0821493
0.46116984 1.1868876 3.0776503
0.48928988 1.1848787 3.0734177
0.51441103 1.1823955 3.0696003
-1.4792396 1.2154295 2.8833296
0.41328946 1.2150666 3.0848751
0.43146947 1.2132499 3.0821493
0.46044728 1.2159916 3.0777612
0.48928988 1.2149708 3.0734177
0.51441103 1.2124245 3.0696001
-1.4792396 1.2455957 2.8833296
0.41328946 1.2453487 3.0848751
0.43146947 1.2434866 3.0821493
0.46044728 1.2461556 3.0777612
0.48928976 1.2450631 3.0734177
0.51441103 1.2424536 3.0696001
-1.4792396 1.2757616 2.8833296
0.41328946 1.2756307 3.0848751
0.43146956 1.2737235 3.082149
0.46044728 1.27632 3.0777612
0.48928988 1.2751553 3.0734177
0.51441115 1.2724828 3.0696001
-1.4792395 1.3059276 2.8833292
0.41328946 1.3059127 3.0848751
0.43146935 1.3039602 3.0821493
0.46068829 1.3055789 3.0777271
0.48928988 1.3052474 3.0734177
0.51441103 1.3025118 3.0696001
-1.4792396 1.3360937 2.8833296
0.41328946 1.3361948 3.0848751
0.43146944 1.3341968 3.082149
0.46044725 1.3347626 3.0777609
0.48929 1.3353394 3.0734177
0.51441103 1.332541 3.0696001
-1.4718329 1.3517727 2.8780923
-1.4471772 1.3517694 2.8822453
-1.4172047 1.3517694 2.885253
-1.3888277 1.3517718 2.8869007
-1.361016 1.3517694 2.8908906
-1.3310436 1.3517696 2.8938975
-1.3010707 1.3517694 2.8969049
-1.2710979 1.3517694 2.8999124
-1.2411251 1.3517694 2.9029198
-1.2111526 1.3517694 2.9059267
-1.1811798 1.3517694 2.9089344
-1.1512069 1.3517694 2.9119418
-1.1212342 1.3517694 2.9149489
-1.0912614 1.3517694 2.9179561
-1.0612888 1.3517696 2.9209635
-1.031316 1.3517694 2.9239707
-1.0013431 1.3517694 2.9269781
-0.9713707 1.3517694 2.9299858
-0.94139791 1.3517694 2.9329925
-0.91142499 1.3517696 2.9359999
-0.88145232 1.3517694 2.9390075
-0.85147965 1.3517696 2.9420147
-0.82150674 1.3517696 2.9450216
-0.79153407 1.3517694 2.9480293
-0.76156127 1.3517694 2.9510367
-0.73158854 1.3517696 2.9540439
-0.70161581 1.3517694 2.957051
-0.67164314 1.3517694 2.9600587
-0.64167047 1.3517696 2.9630656
-0.61169767 1.3517694 2.966073
-0.58172488 1.3517694 2.9690807
-0.55175209 1.3517696 2.9720871
-0.52177936 1.3517694 2.975095
-0.49180672 1.3517694 2.9781022
-0.4618338 1.3517696 2.9811096
-0.43186128 1.3517694 2.984117
-0.4018884 1.3517694 2.9871242
-0.37191576 1.3517694 2.9901319
-0.34194297 1.3517694 2.9931386
-0.31571695 1.3517694 2.9957702
-0.28949067 1.3517696 2.9984016
-0.25951788 1.3517694 3.0014093
-0.22954521 1.3517694 3.0044165
-0.19957244 1.3517694 3.0074236
-0.16959971 1.3517696 3.0104306
