# .PCD v0.7 - Point Cloud Data file format
VERSION 0.7
FIELDS x y z
SIZE 4 4 4
TYPE F F F
COUNT 1 1 1
WIDTH 1496
HEIGHT 1
VIEWPOINT 0 0 0 1 0 0 0
POINTS 1496
DATA ascii
0.74110907 0.89993054 3.024977
0.78063315 0.89919424 3.0135689
0.81476969 0.90113449 3.0037813
-1.1018038 0.93955827 3.0186899
0.7056641 0.94089907 3.0351593
0.74189365 0.93935114 3.02475
0.77893037 0.94047827 3.0140574
0.81476957 0.93868178 3.0037813
-1.1018028 0.98106533 3.0186932
0.70566422 0.97883862 3.0351589
0.74035275 0.9807561 3.0251958
0.77980757 0.97948688 3.0138059
0.81476963 0.97998375 3.0037813
-1.1018034 1.0213145 3.018692
0.7064265 1.0191424 3.0349405
0.74110913 1.0209296 3.024977
0.7807641 1.0191197 3.0135317
0.81476957 1.0212857 3.0037813
-1.1018039 1.060306 3.0186899
0.7048735 1.060697 3.0353856
0.74165171 1.0595577 3.0248189
0.77885115 1.0604063 3.01408
0.81476969 1.058833 3.0037813
-1.1018034 1.0992974 3.018692
0.7056641 1.100245 3.0351586
0.74111027 1.1003342 3.0249784
0.77980757 1.100039 3.0138059
0.81522423 1.0992702 3.0036511
-1.1018028 1.1395466 3.0186934
0.70621097 1.1389999 3.035002
0.74056548 1.1411142 3.0251336
0.78076398 1.139661 3.0135314
0.81427169 1.1404173 3.0039241
-1.1018038 1.1810535 3.0186899
0.70566475 1.1799161 3.0351591
0.74110907 1.1797409 3.0249767
0.77885115 1.1809694 3.0140803
0.81476957 1.178984 3.0037816
-1.1018034 1.220045 3.018692
0.70511651 1.2208378 3.0353162
0.74189359 1.2191405 3.02475
0.77980757 1.2205914 3.0138061
0.81522429 1.2194161 3.0036511
-1.1020105 1.2590444 3.0179689
0.70566404 1.2595907 3.0351586
0.74035269 1.260587 3.0251958
0.78068388 1.2595696 3.0135546
0.81427169 1.2605743 3.0039241
-1.1015956 1.2992779 3.0194163
0.70645434 1.299118 3.0349324
0.74110913 1.30074 3.0249767
0.77948952 1.3003113 3.0138972
0.81476969 1.2991356 3.0037813
-1.0978969 1.3418398 3.0178354
-1.0597775 1.3517153 3.0216463
-1.0194435 1.3517157 3.0206563
-0.9804064 1.3517159 3.019604
-0.94016492 1.3517156 3.0206518
-0.89988232 1.3517152 3.0217121
-0.85962212 1.3517158 3.019604
-0.81933886 1.3517156 3.0206518
-0.78032231 1.3517156 3.0206559
-0.74004674 1.3517157 3.0206592
-0.69977129 1.3517157 3.0206563
-0.66075456 1.3517156 3.0206518
-0.62042695 1.3517159 3.019604
-0.58025575 1.3517153 3.0217118
-0.53992844 1.3517157 3.0206521
-0.49964276 1.3517158 3.0196037
-0.45938724 1.3517153 3.0217121
-0.41910237 1.3517156 3.0206521
-0.3788586 1.3517159 3.019604
-0.33982387 1.3517156 3.0206559
-0.30074739 1.3517153 3.0217121
-0.25932914 1.351716 3.0196621
-0.21899758 1.3517157 3.0206556
-0.1812394 1.3517157 3.0206559
-0.13970537 1.3517157 3.0206559
-0.098171331 1.3517156 3.0206559
-0.06041313 1.3517156 3.0206563
-0.022654926 1.3517157 3.0206563
0.018879104 1.3517156 3.0206559
0.06041313 1.3517157 3.0206559
0.098171331 1.3517157 3.0206559
0.13970536 1.3517157 3.0206559
0.18123938 1.3517157 3.0206566
0.21899757 1.3517157 3.0206563
0.25932914 1.3517159 3.0196624
0.30074739 1.3517153 3.0217118
0.33982384 1.3517154 3.0206556
0.3788586 1.3517159 3.019604
0.41910234 1.3517154 3.0206516
0.45938727 1.3517153 3.0217118
0.49964273 1.3517159 3.019604
0.53992844 1.3517154 3.0206516
0.58025581 1.3517152 3.0217116
0.62042695 1.3517159 3.0196035
0.6607545 1.3517156 3.0206518
0.70280546 1.3416753 3.0286088
0.74066335 1.3407844 3.0201757
0.77942026 1.3392127 3.0123098
0.81471711 1.3365947 3.0035856
-1.0848857 -1.8466141 3.0776901
0.55418128 -1.847271 3.0787849
0.57608414 -1.8435026 3.0725043
-1.0894482 -1.8180906 3.0617793
0.55418134 -1.8203318 3.0787849
0.58030653 -1.8204722 3.0712752
0.61906767 -1.8198659 3.0600834
0.65812969 -1.8164206 3.0488684
0.68428969 -1.8133676 3.0412874
-1.0900161 -1.778471 3.0597985
0.55418128 -1.7779982 3.0787849
0.57880932 -1.7801489 3.0717082
0.61934644 -1.7800958 3.0600035
0.65911865 -1.7802223 3.0485837
0.68428969 -1.7791531 3.0412874
-1.0900161 -1.7402235 3.0597987
0.55418128 -1.7395134 3.0787849
0.57960302 -1.739841 3.07148
0.61989248 -1.7395774 3.0598469
0.65968317 -1.7402177 3.0484226
0.68428969 -1.7411369 3.0412874
-1.0902591 -1.700963 3.0589514
0.55418128 -1.7010287 3.0787849
0.57983804 -1.7001717 3.0714126
0.62017995 -1.699051 3.0597644
0.65981162 -1.7002095 3.048382
0.68428969 -1.6993192 3.0412874
-1.0900173 -1.659914 3.0597944
0.55418128 -1.6625439 3.0787849
0.58062989 -1.6598768 3.0711832
0.61962414 -1.6600087 3.0599236
0.65833676 -1.6601702 3.0488088
0.68428969 -1.6575016 3.0412874
-1.089772 -1.6188334 3.0606506
0.55418134 -1.6202105 3.0787849
0.5797202 -1.6201879 3.0714464
0.61906767 -1.6209606 3.0600839
0.65911871 -1.6201714 3.048584
0.68428969 -1.6194855 3.0412874
-1.0900161 -1.5795838 3.0597985
0.55418128 -1.5778773 3.0787849
0.57880932 -1.580488 3.071708
0.61935699 -1.5804312 3.0600004
0.65968329 -1.5801756 3.0484226
0.68428969 -1.5814694 3.0412874
-1.0902592 -1.5403678 3.0589509
0.55418128 -1.5393924 3.0787849
0.57960314 -1.5401951 3.07148
0.62042731 -1.5391943 3.0596938
0.65981162 -1.5401694 3.048382
0.68428969 -1.5396518 3.0412874
-1.0900981 -1.5002308 3.0595133
0.55418128 -1.5009077 3.0787849
0.58017606 -1.4999031 3.0713165
0.61962414 -1.4993627 3.0599239
0.65833658 -1.5001075 3.0488086
0.68428969 -1.4978341 3.0412874
-1.0899355 -1.460072 3.0600798
0.55418128 -1.4624227 3.0787849
0.58030647 -1.4595972 3.0712752
0.61906767 -1.4603064 3.0600832
0.65911877 -1.4601207 3.048584
0.68428969 -1.459818 3.0412874
-1.0897719 -1.419891 3.0606506
0.55418134 -1.4200896 3.0787849
0.57972014 -1.4205439 3.0714464
0.61934626 -1.4205455 3.0600035
0.65968329 -1.4201335 3.0484226
0.68428969 -1.4218019 3.0412874
-1.0902592 -1.3797731 3.0589509
0.55418128 -1.3777564 3.0787849
0.57880932 -1.380827 3.0717082
0.61989248 -1.3800453 3.0598469
0.65981162 -1.3801292 3.048382
0.68428969 -1.3799843 3.0412874
-1.0900981 -1.3396064 3.0595129
0.55418128 -1.3392714 3.0787849
0.57972103 -1.3399152 3.0714467
0.62017995 -1.3395287 3.0597644
0.65865475 -1.3406966 3.0487168
0.68428969 -1.3381664 3.0412874
-1.0900161 -1.3003923 3.0597985
0.55418128 -1.3007866 3.0787849
0.58062989 -1.2990123 3.0711834
0.61962414 -1.3004676 3.0599239
0.65878606 -1.300688 3.0486796
0.68428969 -1.3001503 3.0412874
-1.0899355 -1.2611667 3.0600798
0.55418128 -1.2623018 3.0787849
0.5797202 -1.259293 3.0714464
0.61882067 -1.2606121 3.0601542
0.66021234 -1.2594872 3.0482681
0.68428969 -1.2621344 3.0412874
-1.0900151 -1.2200687 3.0598028
0.55418134 -1.2199686 3.0787849
0.57972014 -1.2208999 3.0714462
0.61989248 -1.2194033 3.0598469
0.65923393 -1.2194204 3.0485508
0.68428969 -1.2203166 3.0412874
-1.090098 -1.178982 3.0595129
0.55418128 -1.1776352 3.0787849
0.57880932 -1.1811658 3.0717084
0.62017995 -1.1788911 3.0597644
0.65865487 -1.180639 3.0487165
0.68428969 -1.1784987 3.0412874
-1.0900161 -1.1397527 3.0597987
0.55418128 -1.1391505 3.0787849
0.57972103 -1.1402712 3.0714467
0.61962414 -1.1398216 3.0599239
0.65878612 -1.140632 3.0486796
0.68428969 -1.1404828 3.0412874
-1.0899355 -1.1005126 3.0600798
0.55418128 -1.1006656 3.0787849
0.58062977 -1.0993857 3.0711834
0.61906767 -1.1007463 3.0600832
0.66021228 -1.0994533 3.0482688
0.68428969 -1.1024666 3.0412874
-1.0902591 -1.0604151 3.0589509
0.55418128 -1.0621809 3.0787849
0.57972008 -1.0596489 3.0714464
0.61935693 -1.0602312 3.0600007
0.65923393 -1.0593715 3.0485506
0.68428969 -1.060649 3.0412874
-1.089861 -1.0192832 3.0603397
0.55418134 -1.0198475 3.0787849
0.57972008 -1.0212557 3.0714462
0.62042731 -1.0190465 3.0596933
0.65865475 -1.0205815 3.048717
0.68428969 -1.0188313 3.0412874
-1.0900161 -0.97911328 3.0597985
0.55418128 -0.97751427 3.0787849
0.57872707 -0.98085785 3.0717325
0.61962414 -0.97917569 3.0599236
0.65878612 -0.98057646 3.0486796
0.68428969 -0.98081511 3.0412874
-1.0902591 -0.93988192 3.0589514
0.55418128 -0.9390294 3.0787849
0.580176 -0.93938786 3.0713162
0.61962414 -0.94092655 3.0599236
0.6602124 -0.93941909 3.0482686
0.68428969 -0.94279909 3.0412874
-1.0899355 -0.89979684 3.0600798
0.55418128 -0.90054464 3.0787849
0.58030653 -0.89908975 3.0712752
0.61882079 -0.90104389 3.0601542
0.65923405 -0.89932245 3.0485506
0.68428969 -0.90098137 3.0412874
-1.0900161 -0.86055356 3.0597985
0.55418128 -0.86205977 3.0787849
0.5797202 -0.8600049 3.0714462
0.62039912 -0.85917383 3.0597014
0.65923387 -0.86121559 3.0485504
0.68428969 -0.8591637 3.0412874
-1.0898612 -0.82036108 3.0603392
0.55418134 -0.81972647 3.0787849
0.57972002 -0.82161182 3.0714467
0.61962414 -0.81852973 3.0599236
0.6582557 -0.82110417 3.0488324
0.68428969 -0.82114756 3.0412874
-1.0902592 -0.77928698 3.0589509
0.55418128 -0.77739316 3.0787849
0.57872701 -0.78119534 3.0717323
0.61962414 -0.78028065 3.0599236
0.66021228 -0.77938491 3.0482686
0.68428969 -0.7793299 3.0412874
-1.0899355 -0.73914248 3.0600798
0.55418128 -0.73890841 3.0787849
0.58071309 -0.73917025 3.0711601
0.61906767 -0.74118644 3.0600836
0.65923387 -0.73927361 3.0485504
0.68428969 -0.73751223 3.0412874
-1.0900161 -0.69991404 3.0597985
0.55418128 -0.7004236 3.0787849
0.57972014 -0.69875395 3.0714462
0.61962497 -0.69995582 3.0599234
0.65923405 -0.70116669 3.0485506
0.68428969 -0.69949609 3.0412874
-1.090098 -0.66069669 3.0595129
0.55418128 -0.66193885 3.0787849
0.57972008 -0.66036081 3.0714464
0.62017995 -0.6587308 3.0597644
0.65825564 -0.66104043 3.0488322
0.68428969 -0.66148001 3.0412874
-1.0900149 -0.61959797 3.0598028
0.55418134 -0.61960548 3.0787849
0.57972014 -0.62196773 3.0714467
0.61962414 -0.61963469 3.0599236
0.66021228 -0.61935085 3.0482686
0.68428969 -0.61966234 3.0412874
-1.0900161 -0.57943821 3.0597987
0.55418128 -0.57727212 3.0787849
0.57886374 -0.58090979 3.0716934
0.61962414 -0.58138555 3.0599236
0.65923393 -0.57922453 3.0485506
0.68428969 -0.57784462 3.0412874
-1.0899355 -0.54023737 3.0600798
0.55418128 -0.53878736 3.0787849
0.58062989 -0.53889477 3.0711832
0.61884969 -0.5407154 3.0601461
0.65923405 -0.54111779 3.0485504
0.68428969 -0.53982854 3.0412874
-1.090098 -0.5000723 3.0595129
0.55418128 -0.50030255 3.0787849
0.57972008 -0.49910995 3.0714464
0.62042731 -0.49889845 3.0596936
0.65825576 -0.50097662 3.0488324
0.68428969 -0.5018124 3.0412874
-1.0902591 -0.45992911 3.0589514
0.55418128 -0.46181774 3.0787849
0.57972014 -0.46071687 3.0714464
0.6196242 -0.45898855 3.0599236
0.66021228 -0.45931679 3.0482683
0.68428969 -0.45999473 3.0412874
-1.0897717 -0.41974032 3.0606508
0.55418134 -0.41948444 3.0787849
0.57972008 -0.42232379 3.0714464
0.61962414 -0.42073953 3.0599236
0.65923393 -0.41917574 3.0485506
0.68428969 -0.41817704 3.0412874
-1.0899355 -0.37958315 3.0600798
0.55418128 -0.37715119 3.0787849
0.57972008 -0.38009146 3.0714464
0.61906761 -0.38162661 3.0600834
0.65923393 -0.38106886 3.0485506
0.68428969 -0.3801609 3.0412874
-1.0900979 -0.3394478 3.0595129
0.55418128 -0.33866638 3.0787849
0.57972014 -0.33785906 3.0714462
0.62012315 -0.33974034 3.0597806
0.65825564 -0.34091294 3.0488324
0.68428969 -0.34214482 3.0412874
-1.0902592 -0.29933417 3.0589509
0.55418128 -0.30018154 3.0787849
0.57972008 -0.29946598 3.0714464
0.61962414 -0.29834262 3.0599239
0.66021234 -0.29928267 3.0482686
0.68428969 -0.30032712 3.0412874
-1.0900161 -0.2600829 3.0597987
0.55418128 -0.26169676 3.0787849
0.57972008 -0.26107293 3.0714464
0.61962408 -0.26009354 3.0599239
0.65923405 -0.25912681 3.0485506
0.68428969 -0.25850943 3.0412874
-1.0897719 -0.22079802 3.0606508
0.55418134 -0.21936344 3.0787849
0.5797202 -0.22267985 3.0714462
0.61962414 -0.22184448 3.0599234
0.65923405 -0.22101994 3.0485504
0.68428969 -0.22049335 3.0412874
-1.0900173 -0.17975277 3.0597944
0.55418128 -0.17703015 3.0787849
0.57972002 -0.18044746 3.0714464
0.61962432 -0.17977056 3.0599239
0.6582557 -0.18084928 3.0488324
0.68428969 -0.18247724 3.0412874
-1.0902592 -0.13873924 3.0589514
0.55418128 -0.13854532 3.0787849
0.57972014 -0.13821507 3.0714464
0.61962414 -0.13769658 3.0599236
0.66021234 -0.13924852 3.0482686
0.68428969 -0.14065954 3.0412874
-1.0900161 -0.099443458 3.0597987
0.55418128 -0.10006052 3.0787849
0.57972014 -0.099821977 3.0714462
0.61962414 -0.099447533 3.0599236
0.65923393 -0.099077903 3.0485504
0.68428969 -0.098841839 3.0412874
-1.0900161 -0.061195977 3.0597985
0.55418128 -0.0615757 3.0787849
0.5797202 -0.061428912 3.0714462
0.61962414 -0.061198477 3.0599239
0.65923393 -0.060971014 3.0485504
0.68428969 -0.060825747 3.0412874
-1.0900161 -0.02294849 3.0597985
0.55418128 -0.023090888 3.0787849
0.57972014 -0.023035845 3.0714464
0.61962414 -0.022949431 3.0599236
0.65923405 -0.022864135 3.0485508
0.68428969 -0.022809654 3.0412874
-1.0900161 0.019123742 3.0597987
0.55418134 0.019242406 3.0787849
0.57972008 0.019196536 3.0714464
0.61962426 0.019124527 3.0599236
0.65923399 0.019053441 3.0485501
0.68428969 0.019008048 3.0412874
-1.0900161 0.06119597 3.0597985
0.55418128 0.0615757 3.0787849
0.57972014 0.061428912 3.0714462
0.61962414 0.061198477 3.0599236
0.65923393 0.060971018 3.0485506
0.68428969 0.060825747 3.0412874
-1.0900162 0.099443458 3.0597985
0.55418128 0.10006052 3.0787849
0.57972008 0.099821992 3.0714462
0.61962414 0.099447526 3.0599236
0.65923387 0.099077918 3.0485504
0.68428969 0.098841839 3.0412874
-1.0902591 0.13873923 3.0589509
0.55418128 0.13854532 3.0787849
0.57972014 0.13821505 3.0714464
0.61962414 0.13769661 3.0599236
0.66021234 0.13924854 3.0482686
0.68428969 0.14065954 3.0412874
-1.0900173 0.17975278 3.0597944
0.55418128 0.17703015 3.0787849
0.57972008 0.18044744 3.0714464
0.61962432 0.17977054 3.0599234
0.65825564 0.18084927 3.0488324
0.68428969 0.18247724 3.0412874
-1.0897719 0.220798 3.0606506
0.55418134 0.21936344 3.0787849
0.57972008 0.22267982 3.0714464
0.61962414 0.22184448 3.0599239
0.65923405 0.22101994 3.0485506
0.68428969 0.22049335 3.0412874
-1.0900161 0.26008293 3.0597985
0.55418128 0.26169673 3.0787849
0.57972014 0.2610729 3.0714462
0.61962414 0.26009354 3.0599234
0.65923393 0.25912681 3.0485506
0.68428969 0.25850946 3.0412874
-1.0902592 0.29933414 3.0589514
0.55418128 0.30018154 3.0787849
0.57972008 0.29946595 3.0714464
0.6196242 0.29834259 3.0599239
0.66021222 0.29928267 3.0482683
0.68428969 0.30032715 3.0412874
-1.090098 0.33944777 3.0595129
0.55418128 0.33866635 3.0787849
0.57972014 0.33785903 3.0714462
0.62012321 0.33974031 3.0597808
0.65825564 0.34091303 3.0488322
0.68428969 0.34214482 3.0412874
-1.0899355 0.37958312 3.0600798
0.55418128 0.37715119 3.0787849
0.57972008 0.38009143 3.0714464
0.61906767 0.38162667 3.0600834
0.65923387 0.38106883 3.0485504
0.68428969 0.3801609 3.0412874
-1.0897719 0.41974032 3.0606506
0.55418134 0.41948444 3.0787849
0.57972014 0.42232388 3.0714464
0.61962408 0.4207395 3.0599239
0.65923405 0.41917577 3.0485506
0.68428969 0.41817704 3.0412874
-1.0902591 0.45992911 3.0589509
0.55418128 0.46181774 3.0787849
0.5797202 0.4607169 3.0714462
0.61962408 0.45898861 3.0599236
0.66021234 0.45931679 3.0482686
0.68428969 0.45999473 3.0412874
-1.090098 0.50007224 3.0595129
0.55418128 0.50030261 3.0787849
0.57972014 0.49910989 3.0714462
0.62042737 0.49889845 3.0596933
0.6582557 0.50097668 3.0488324
0.68428969 0.5018124 3.0412874
-1.0899355 0.54023737 3.0600798
0.55418128 0.53878736 3.0787849
0.58062989 0.53889477 3.0711832
0.61884975 0.54071546 3.0601456
0.65923393 0.54111785 3.0485504
0.68428969 0.53982848 3.0412874
-1.0900161 0.57943815 3.0597985
0.55418128 0.57727218 3.0787849
0.5788638 0.58090973 3.0716934
0.61962414 0.58138555 3.0599236
0.65923405 0.57922465 3.0485504
0.68428969 0.57784462 3.0412874
-1.0900149 0.61959797 3.0598028
0.55418134 0.61960542 3.0787849
0.57972014 0.62196773 3.0714464
0.61962414 0.61963451 3.0599236
0.66021228 0.61935091 3.0482683
0.68428969 0.61966228 3.0412874
-1.090098 0.66069669 3.0595129
0.55418128 0.66193885 3.0787849
0.57972008 0.66036081 3.0714464
0.62017995 0.65873092 3.0597644
0.6582557 0.66104048 3.0488324
0.68428969 0.66148001 3.0412874
-1.0900161 0.6999141 3.0597985
0.55418128 0.7004236 3.0787849
0.57972014 0.69875389 3.0714462
0.61962491 0.69995576 3.0599239
0.65923393 0.70116663 3.0485506
0.68428969 0.69949609 3.0412874
-1.0899355 0.73914248 3.0600798
0.55418128 0.73890841 3.0787849
0.58071309 0.73917031 3.0711598
0.61906767 0.74118644 3.0600834
0.65923393 0.73927361 3.0485504
0.68428969 0.73751223 3.0412874
-1.0902591 0.77928698 3.0589509
0.55418128 0.77739316 3.0787849
0.57872713 0.7811954 3.0717323
0.61962414 0.78028065 3.0599236
0.66021228 0.77938497 3.0482686
0.68428969 0.7793299 3.0412874
-1.0898612 0.82036102 3.0603397
0.55418134 0.81972647 3.0787849
0.57972008 0.82161176 3.0714462
0.61962408 0.81852955 3.0599236
0.65825564 0.82110423 3.0488324
0.68428969 0.82114762 3.0412874
-1.0900162 0.86055356 3.0597987
0.55418128 0.86205977 3.0787849
0.57972008 0.86000484 3.0714464
0.620399 0.85917377 3.0597014
0.65923405 0.86121559 3.0485506
0.68428969 0.8591637 3.0412874
-1.0899355 0.89979672 3.0600798
0.55418128 0.90054464 3.0787849
0.58030665 0.89908981 3.071275
0.61882067 0.90104377 3.0601542
0.65923393 0.89932245 3.0485504
0.68428969 0.90098137 3.0412874
-1.0902592 0.9398821 3.0589509
0.55418128 0.9390294 3.0787849
0.58017606 0.93938804 3.0713165
0.61962408 0.94092667 3.0599236
0.66021228 0.93941909 3.0482683
0.68428969 0.94279909 3.0412874
-1.0900161 0.9791134 3.0597985
0.55418128 0.97751421 3.0787849
0.57872701 0.98085797 3.0717323
0.61962414 0.97917563 3.0599236
0.65878612 0.9805764 3.0486798
0.68428969 0.98081523 3.0412874
-1.0898612 1.0192833 3.0603397
0.55418134 1.0198476 3.0787849
0.57972014 1.021256 3.0714462
0.62042737 1.0190464 3.0596936
0.65865469 1.0205815 3.0487165
0.68428969 1.0188313 3.0412874
-1.0902591 1.0604151 3.0589509
0.55418128 1.0621809 3.0787849
0.57972008 1.059649 3.0714462
0.61935693 1.0602312 3.0600004
0.65923387 1.0593714 3.0485504
0.68428969 1.0606489 3.0412874
-1.0899355 1.1005127 3.0600798
0.55418128 1.1006657 3.0787849
0.58062977 1.0993857 3.0711832
0.61906773 1.1007464 3.0600834
0.6602124 1.0994532 3.0482686
0.68428969 1.1024667 3.0412874
-1.0900161 1.1397526 3.0597987
0.55418128 1.1391505 3.0787849
0.57972109 1.1402713 3.0714467
0.61962408 1.1398218 3.0599239
0.65878606 1.1406323 3.0486796
0.68428969 1.1404828 3.0412874
-1.0900979 1.178982 3.0595129
0.55418128 1.1776352 3.0787849
0.57880932 1.1811657 3.0717082
0.62018001 1.1788908 3.0597644
0.65865469 1.180639 3.0487168
0.68428969 1.1784989 3.0412874
-1.0900149 1.2200686 3.0598028
0.55418134 1.2199686 3.0787849
0.5797202 1.2208998 3.0714464
0.61989248 1.2194033 3.0598466
0.65923405 1.2194203 3.0485504
0.68428969 1.2203166 3.0412874
-1.0899355 1.2611667 3.0600798
0.55418128 1.2623018 3.0787849
0.57972014 1.2592927 3.0714464
0.61882061 1.2606121 3.0601544
0.66021222 1.2594874 3.0482683
0.68428969 1.2621342 3.0412874
-1.0900162 1.300392 3.0597985
0.55418128 1.3007867 3.0787849
0.58062989 1.2990128 3.0711832
0.61962414 1.3004676 3.0599236
0.65878606 1.3006879 3.0486796
0.68428969 1.3001504 3.0412874
-1.0894372 1.3374606 3.0598598
-1.0606827 1.3517032 3.0633752
-1.0203927 1.3517034 3.0625868
-0.9784376 1.351703 3.0641632
-0.93814772 1.3517033 3.0633752
-0.89985555 1.3517033 3.0633752
-0.85960692 1.3517035 3.0625868
-0.8194527 1.3517032 3.0633752
-0.77926701 1.351703 3.0641637
-0.73902839 1.3517032 3.0633752
-0.70073611 1.3517032 3.0633752
-0.66053885 1.3517034 3.0625868
-0.62033337 1.3517032 3.0633752
-0.58009642 1.351703 3.0641637
-0.53990895 1.3517032 3.063375
-0.49975309 1.3517034 3.0625868
-0.45950624 1.3517033 3.0633752
-0.42121401 1.3517032 3.063375
-0.38092583 1.351703 3.0641637
-0.33896726 1.3517034 3.0625868
-0.29867905 1.3517032 3.0633752
-0.26038685 1.3517032 3.0633752
-0.22209466 1.3517032 3.0633752
-0.17997327 1.3517032 3.0633752
-0.13785186 1.3517032 3.063375
-0.099559687 1.3517032 3.063375
-0.061267495 1.3517033 3.0633752
-0.022975311 1.3517032 3.063375
0.019146092 1.3517032 3.0633752
0.061267495 1.3517032 3.063375
0.09955968 1.3517032 3.0633752
0.13785188 1.3517033 3.0633752
0.17997327 1.3517032 3.0633752
0.22209466 1.3517032 3.0633752
0.26038685 1.3517032 3.063375
0.29867902 1.3517032 3.063375
0.33896726 1.3517034 3.0625868
0.38092583 1.351703 3.0641637
0.42121401 1.3517032 3.0633752
0.45950618 1.3517033 3.0633752
0.49975309 1.3517035 3.0625868
0.5439868 1.3470519 3.0677781
0.57889742 1.3393854 3.0689325
0.61941481 1.3382546 3.0588796
0.65851575 1.3368788 3.0487568
0.68428969 1.3343649 3.0412874
-1.0814209 -1.8500022 3.0897739
-1.0758852 -1.8553281 3.1088743
0.42390311 -1.8569548 3.116313
0.45694298 -1.8537012 3.1067648
0.49715552 -1.8503604 3.0952213
0.53584576 -1.8465704 3.0840425
-1.0814209 -1.8229666 3.0897739
-1.0761365 -1.8220561 3.1079977
0.42438662 -1.8199919 3.1161742
0.45847133 -1.8195876 3.1063263
0.49936077 -1.8200624 3.0945852
0.53584576 -1.8195851 3.0840428
-1.0814209 -1.7804822 3.0897739
-1.0762964 -1.7811241 3.10744
0.42474365 -1.7791263 3.1160719
0.45875731 -1.7792197 3.1062443
0.49959818 -1.7800928 3.0945139
0.53584582 -1.7810347 3.0840428
-1.0814209 -1.7379979 3.0897739
-1.0759764 -1.7386678 3.1085556
0.42456475 -1.7391837 3.116122
0.45818454 -1.7395884 3.1064086
0.49840593 -1.7401079 3.0948589
0.535321 -1.7414665 3.0841932
-1.0814209 -1.6993757 3.0897739
-1.0761365 -1.697736 3.1079977
0.42509961 -1.6993126 3.1159654
0.45818451 -1.7007588 3.1064084
0.49864519 -1.7001355 3.0947909
0.53584623 -1.7000765 3.0840428
-1.0814209 -1.6607535 3.0897739
-1.0761365 -1.6588862 3.1079977
0.42456475 -1.6593348 3.116122
0.45761102 -1.6611193 3.1065733
0.49888402 -1.660165 3.094722
0.53637016 -1.6586925 3.0838921
-1.0814209 -1.6221313 3.0897739
-1.0761365 -1.6200361 3.1079977
0.42456481 -1.6203835 3.116122
0.45789817 -1.620749 3.1064906
0.49912253 -1.6201972 3.0946534
0.53584582 -1.6191224 3.084043
-1.0814209 -1.5796469 3.0897739
-1.0761365 -1.5811861 3.1079977
0.42456475 -1.581432 3.116122
0.45818493 -1.5803822 3.1064088
0.49992636 -1.5796028 3.0944204
0.53584576 -1.5805718 3.0840425
-1.0814209 -1.5371625 3.0897739
-1.0761365 -1.5423361 3.1079977
0.42402914 -1.5414429 3.1162767
0.45901221 -1.5392785 3.1061711
0.49900287 -1.5396072 3.0946872
0.535321 -1.5409942 3.0841932
-1.0814209 -1.4985403 3.0897739
-1.0762964 -1.5014547 3.10744
0.42438671 -1.500584 3.1161742
0.45818451 -1.4988421 3.1064088
0.49840596 -1.5002569 3.0948591
0.53567117 -1.5005558 3.0840931
-1.0814209 -1.4599183 3.0897739
-1.0759764 -1.4588977 3.108556
0.42474365 -1.4597291 3.1160719
0.45818451 -1.4600121 3.1064088
0.49864516 -1.460289 3.0947905
0.53651345 -1.4592209 3.0838509
-1.0814209 -1.421296 3.0897739
-1.0761365 -1.4180163 3.1079977
0.42509961 -1.4188758 3.1159654
0.45818451 -1.4211818 3.1064086
0.49888402 -1.4203238 3.094722
0.53584582 -1.4186596 3.084043
-1.0814209 -1.3826739 3.0897739
-1.0761365 -1.3791664 3.1079977
0.42456475 -1.378884 3.1161222
0.45761102 -1.3815274 3.1065731
0.49946564 -1.3797336 3.0945556
0.53584582 -1.3801091 3.0840425
-1.0814209 -1.3401895 3.0897739
-1.0761365 -1.3403163 3.1079977
0.42456481 -1.3399324 3.116122
0.45790917 -1.3403894 3.1064878
0.49959818 -1.3391246 3.0945139
0.53584582 -1.3415586 3.0840428
-1.0814209 -1.2977051 3.0897739
-1.0761365 -1.3014663 3.1079977
0.42456475 -1.3009809 3.116122
0.45847133 -1.2992781 3.1063263
0.49900284 -1.2997689 3.0946875
0.53517818 -1.3009847 3.0842342
-1.0814209 -1.2590828 3.0897739
-1.0762964 -1.2606279 3.1074398
0.42456475 -1.2620294 3.116122
0.45875728 -1.2589238 3.1062441
0.49840593 -1.2604051 3.0948591
0.53651345 -1.2587706 3.0838513
-1.0814209 -1.2204608 3.0897739
-1.0761365 -1.219889 3.1079977
0.4238835 -1.2210294 3.1163199
0.45818451 -1.2192652 3.1064084
0.49864516 -1.2204425 3.0947905
0.53584582 -1.2181967 3.0840428
-1.0814209 -1.1818386 3.0897739
-1.0759764 -1.1791278 3.1085556
0.42474371 -1.1792824 3.1160722
0.45818451 -1.1804352 3.1064084
0.49900383 -1.1798465 3.0946882
0.53584588 -1.1796464 3.0840428
-1.0814209 -1.1393542 3.0897739
-1.0761365 -1.1382965 3.1079977
0.42509961 -1.1384391 3.1159651
0.45818454 -1.141605 3.1064086
0.49936077 -1.1392539 3.0945849
0.53584582 -1.1410956 3.0840428
-1.0814209 -1.0968697 3.0897739
-1.0761365 -1.0994465 3.1079977
0.42456481 -1.0984329 3.116122
0.45735645 -1.1011318 3.1066461
0.49959812 -1.0992999 3.0945144
0.535321 -1.1014965 3.0841932
-1.0814209 -1.0582476 3.0897739
-1.0761365 -1.0605963 3.1079977
0.42456475 -1.0594815 3.116122
0.45818493 -1.060059 3.1064088
0.49900284 -1.0599307 3.0946875
0.53584623 -1.0601377 3.0840428
-1.0814209 -1.0196254 3.0897739
-1.0762964 -1.0198014 3.1074398
0.42456475 -1.0205299 3.116122
0.45901224 -1.018995 3.1061709
0.49900287 -1.0212469 3.0946875
0.53637016 -1.0187846 3.0838926
-1.0814209 -0.98100322 3.0897739
-1.0761365 -0.97901917 3.1079977
0.42456481 -0.98157835 3.1161222
0.45818457 -0.97851866 3.1064084
0.49807817 -0.98119521 3.0949533
0.53584576 -0.97918361 3.0840425
-1.0814209 -0.94238108 3.0897739
-1.0761365 -0.94016927 3.1079977
0.42402917 -0.94155979 3.1162767
0.45818454 -0.93968844 3.1064084
0.49900377 -0.9400081 3.0946882
0.53584582 -0.94063282 3.0840428
-1.0814209 -0.89989674 3.0897739
-1.0761365 -0.90131932 3.1079977
0.42456558 -0.8997789 3.1161239
0.45818454 -0.90085834 3.1064084
0.49992642 -0.89883059 3.0944209
0.53584582 -0.90208238 3.084043
-1.0814209 -0.85741234 3.0897739
-1.0759764 -0.86050087 3.1085556
0.42509961 -0.85800207 3.1159654
0.45818454 -0.86202842 3.1064086
0.49900281 -0.85877573 3.0946875
0.53536701 -0.86055237 3.0841799
-1.0814209 -0.81879008 3.0897739
-1.0761365 -0.81972665 3.1079979
0.42456481 -0.81798214 3.116122
0.45735648 -0.82153362 3.1066461
0.49900275 -0.82009226 3.0946882
0.53637016 -0.81833166 3.0838921
-1.0814209 -0.78016788 3.0897739
-1.0761365 -0.7808767 3.1079977
0.42456481 -0.7790305 3.116122
0.458983 -0.77903932 3.1061797
0.49900281 -0.78140861 3.0946877
0.53584582 -0.77872074 3.084043
-1.0814209 -0.74154568 3.0897739
-1.0762964 -0.74013186 3.1074398
0.42456475 -0.74007905 3.116122
0.45818451 -0.73777199 3.1064086
0.49807814 -0.74133617 3.0949535
0.53584582 -0.74017018 3.0840428
-1.0814209 -0.7029236 3.0897739
-1.0761365 -0.69929951 3.1079977
0.42456475 -0.70112741 3.116122
0.45818451 -0.69894177 3.1064086
0.49934006 -0.69956285 3.0945923
0.53584582 -0.70161974 3.0840428
-1.0814209 -0.66043913 3.0897739
-1.0761365 -0.66044945 3.1079977
0.42456475 -0.66217583 3.116122
0.45818454 -0.66011178 3.1064086
0.49959821 -0.65833163 3.0945139
0.53517812 -0.66100615 3.0842342
-1.0814209 -0.61795479 3.0897739
-1.0761365 -0.62159956 3.1079977
0.4238835 -0.6211378 3.1163199
0.45818454 -0.62128174 3.1064086
0.49900284 -0.61893743 3.0946875
0.53651351 -0.61887145 3.0838513
-1.0814209 -0.57933265 3.0897739
-1.0759764 -0.58073092 3.1085556
0.42524609 -0.57856917 3.1159246
0.45818457 -0.58245152 3.1064086
0.49900281 -0.58025396 3.0946877
0.53584582 -0.57825798 3.084043
-1.0814209 -0.54071045 3.0897739
-1.0761365 -0.54000694 3.1079977
0.42456475 -0.53753102 3.1161222
0.45738643 -0.54116362 3.1066377
0.49900284 -0.54157031 3.0946877
0.53584582 -0.53970736 3.0840428
-1.0814209 -0.50208825 3.0897739
-1.0762964 -0.49930522 3.1074398
0.42456475 -0.4985795 3.116122
0.45901221 -0.49871138 3.1061711
0.4980782 -0.5014773 3.0949533
0.53584582 -0.50115699 3.0840425
-1.0814209 -0.45960391 3.0897739
-1.0761365 -0.45842966 3.1079977
0.42456481 -0.45962802 3.116122
0.45818454 -0.45819521 3.1064084
0.49987298 -0.45915821 3.0944374
0.53584582 -0.46260634 3.0840433
-1.0814209 -0.4171195 3.0897739
-1.0761365 -0.41957971 3.1079977
0.42456481 -0.42067644 3.116122
0.45818454 -0.41936511 3.1064086
0.49900281 -0.41778281 3.0946877
0.53584576 -0.42020079 3.084043
-1.0814209 -0.37849733 3.0897739
-1.0761365 -0.38072968 3.1079977
0.42456481 -0.38172492 3.116122
0.45818454 -0.38053504 3.1064084
0.49900281 -0.37909925 3.0946875
0.53584582 -0.37779522 3.0840428
-1.0814209 -0.33987513 3.0897739
-1.0761365 -0.3418797 3.1079977
0.42456481 -0.34277341 3.116122
0.45818451 -0.34170493 3.1064084
0.49900284 -0.34041566 3.0946875
0.53584582 -0.33924466 3.0840428
-1.0814209 -0.30125296 3.0897739
-1.0759764 -0.30096093 3.1085556
0.42456478 -0.29992673 3.116122
0.45818454 -0.3028748 3.1064086
0.49900281 -0.30173209 3.0946875
0.53584576 -0.30069417 3.0840428
-1.0814209 -0.26263079 3.0897739
-1.0762964 -0.25847867 3.10744
0.42456475 -0.25708008 3.116122
0.45818454 -0.2601617 3.1064091
0.49807817 -0.26161844 3.0949538
0.53584582 -0.26214358 3.084043
-1.0814209 -0.2201464 3.0897739
-1.0761365 -0.21755981 3.1079977
0.42456481 -0.21812852 3.116122
0.45818451 -0.21744861 3.1064081
0.49987298 -0.21933927 3.0944369
0.53584582 -0.21973801 3.0840425
-1.0814209 -0.177662 3.0897739
-1.0761365 -0.17870986 3.1079977
0.42456481 -0.17917702 3.1161222
0.45818454 -0.17861851 3.1064086
0.49900281 -0.17794456 3.0946875
0.53584582 -0.17733245 3.0840428
-1.0814209 -0.13903983 3.0897739
-1.0761365 -0.1398599 3.1079977
0.42456475 -0.1402255 3.116122
0.45818451 -0.13978837 3.1064084
0.49900275 -0.13926095 3.094687
0.53584582 -0.13878192 3.0840428
-1.0814209 -0.10041767 3.0897739
-1.0761365 -0.10100991 3.1079977
0.42456481 -0.10127397 3.1161222
0.45818457 -0.10095827 3.1064086
0.49900284 -0.10057735 3.0946875
0.53584582 -0.10023137 3.0840425
-1.0814209 -0.061795481 3.0897739
-1.0761365 -0.062159952 3.1079977
0.42456475 -0.062322445 3.116122
0.45818454 -0.062128168 3.1064084
0.49900287 -0.06189375 3.0946875
0.53584582 -0.06168085 3.0840428
-1.0814209 -0.023173306 3.0897739
-1.0761365 -0.023309981 3.1079977
0.42456475 -0.023370916 3.116122
0.45818451 -0.023298064 3.1064086
0.49900281 -0.023210157 3.0946875
0.53584582 -0.023130318 3.0840423
-1.0814209 0.019311087 3.0897739
-1.0761364 0.019424984 3.1079977
0.42456478 0.019475764 3.1161222
0.45818451 0.019415054 3.1064086
0.49900284 0.019341795 3.0946875
0.53584576 0.019275269 3.0840425
-1.0814209 0.061795481 3.0897739
-1.0761365 0.062159944 3.1079977
0.42456475 0.062322434 3.116122
0.45818451 0.062128168 3.1064086
0.49900281 0.06189375 3.0946875
0.5358457 0.061680853 3.084043
-1.0814209 0.10041765 3.0897739
-1.0761365 0.10100992 3.1079977
0.42456475 0.10127397 3.1161222
0.45818454 0.10095828 3.1064084
0.49900281 0.10057734 3.0946875
0.53584582 0.10023137 3.0840425
-1.0814209 0.13903983 3.0897739
-1.0761365 0.1398599 3.1079977
0.42456475 0.14022548 3.116122
0.45818457 0.13978836 3.1064088
0.49900281 0.13926093 3.0946875
0.53584588 0.13878191 3.084043
-1.0814209 0.177662 3.0897739
-1.0761365 0.17870985 3.1079977
0.42456481 0.17917703 3.116122
0.45818454 0.17861851 3.1064086
0.49900275 0.17794454 3.0946877
0.53584582 0.17733245 3.0840428
-1.0814209 0.2201464 3.0897739
-1.0761365 0.21755984 3.1079977
0.42456481 0.21812852 3.116122
0.45818451 0.21744861 3.1064086
0.49987304 0.21933931 3.0944369
0.53584582 0.21973804 3.0840425
-1.0814209 0.26263079 3.0897739
-1.0762964 0.25847867 3.1074398
0.42456481 0.25708005 3.116122
0.45818454 0.2601617 3.1064088
0.49807817 0.26161841 3.0949533
0.53584582 0.26214364 3.0840428
-1.0814209 0.30125293 3.0897739
-1.0759764 0.30096093 3.1085556
0.42456478 0.29992673 3.1161218
0.45818454 0.30287486 3.1064086
0.49900281 0.30173203 3.0946872
0.53584582 0.30069411 3.0840428
-1.0814209 0.33987513 3.0897739
-1.0761365 0.34187973 3.1079977
0.42456475 0.34277344 3.116122
0.45818457 0.34170491 3.1064086
0.49900281 0.3404156 3.0946875
0.53584582 0.33924469 3.0840428
-1.0814209 0.37849733 3.0897739
-1.0761365 0.38072971 3.1079977
0.42456475 0.38172495 3.116122
0.45818451 0.38053498 3.1064086
0.49900284 0.37909925 3.0946875
0.53584582 0.37779519 3.0840425
-1.0814209 0.41711947 3.0897739
-1.0761365 0.41957965 3.1079977
0.42456481 0.42067644 3.1161225
0.45818457 0.41936511 3.1064084
0.49900284 0.41778284 3.0946882
0.53584576 0.42020082 3.0840425
-1.0814209 0.45960388 3.0897739
-1.0761365 0.45842966 3.1079977
0.42456481 0.45962796 3.116122
0.45818457 0.45819527 3.1064084
0.49987304 0.45915821 3.0944369
0.53584582 0.4626064 3.0840428
-1.0814209 0.50208825 3.0897739
-1.0762964 0.49930522 3.10744
0.42456475 0.4985795 3.116122
0.45901221 0.49871132 3.1061709
0.49807817 0.5014773 3.0949535
0.53584582 0.50115693 3.0840428
-1.0814209 0.54071045 3.0897739
-1.0761365 0.54000688 3.1079977
0.42456475 0.53753102 3.116122
0.4573864 0.54116362 3.1066375
0.49900281 0.54157037 3.0946877
0.53584582 0.53970736 3.084043
-1.0814209 0.57933259 3.0897739
-1.0759764 0.58073092 3.1085556
0.42524609 0.57856911 3.1159246
0.45818454 0.58245164 3.1064086
0.49900281 0.58025396 3.0946875
0.53584588 0.57825804 3.0840428
-1.0814209 0.61795479 3.0897739
-1.0761365 0.62159961 3.1079977
0.4238835 0.62113774 3.1163199
0.45818451 0.62128168 3.1064086
0.49900281 0.61893755 3.0946877
0.53651345 0.61887151 3.0838513
-1.0814209 0.66043919 3.0897739
-1.0761365 0.6604495 3.1079977
0.42456475 0.66217589 3.116122
0.45818451 0.66011184 3.1064086
0.49959818 0.65833169 3.0945139
0.53517818 0.66100615 3.0842345
-1.0814209 0.7029236 3.0897739
-1.0761365 0.69929945 3.1079977
0.42456481 0.70112747 3.116122
0.45818457 0.69894201 3.1064088
0.49934012 0.69956273 3.0945921
0.53584582 0.70161974 3.0840428
-1.0814209 0.7415458 3.0897739
-1.0762964 0.74013186 3.10744
0.42456481 0.74007899 3.1161222
0.45818457 0.73777199 3.1064086
0.49807817 0.74133623 3.0949538
0.53584576 0.74017018 3.0840433
-1.0814209 0.78016794 3.0897739
-1.0761365 0.78087676 3.1079977
0.42456475 0.77903044 3.116122
0.45898309 0.77903944 3.1061795
0.49900281 0.78140861 3.0946877
0.53584588 0.7787208 3.0840428
-1.0814209 0.81879014 3.0897739
-1.0761365 0.81972677 3.1079977
0.42456475 0.81798202 3.116122
0.45735645 0.82153368 3.1066456
0.49900284 0.82009226 3.0946872
0.5363701 0.81833178 3.0838926
-1.0814209 0.85741228 3.0897739
-1.0759764 0.86050087 3.1085556
0.42509955 0.85800201 3.1159654
0.45818451 0.86202824 3.1064084
0.49900281 0.85877579 3.0946875
0.53536701 0.86055237 3.0841801
-1.0814209 0.89989662 3.0897739
-1.0761365 0.90131921 3.1079977
0.42456558 0.8997789 3.1161244
0.45818451 0.90085846 3.1064084
0.49992639 0.89883059 3.0944204
0.53584582 0.90208238 3.0840428
-1.0814209 0.94238108 3.0897739
-1.0761365 0.94016933 3.1079979
0.42402914 0.94155955 3.1162767
0.45818457 0.93968844 3.1064084
0.4990038 0.94000822 3.0946882
0.53584582 0.94063312 3.0840428
-1.0814209 0.98100322 3.0897739
-1.0761365 0.97901928 3.1079977
0.42456475 0.98157835 3.116122
0.45818454 0.97851866 3.1064084
0.49807817 0.98119509 3.0949535
0.53584582 0.9791835 3.084043
-1.0814209 1.0196255 3.0897739
-1.0762964 1.0198014 3.1074398
0.42456475 1.02053 3.116122
0.45901221 1.018995 3.1061711
0.49900281 1.0212469 3.0946875
0.5363701 1.0187846 3.0838926
-1.0814209 1.0582476 3.0897739
-1.0761365 1.0605966 3.1079977
0.42456475 1.0594815 3.116122
0.45818496 1.0600588 3.1064084
0.49900284 1.0599306 3.0946875
0.53584629 1.0601379 3.0840428
-1.0814209 1.0968698 3.0897739
-1.0761365 1.0994465 3.1079977
0.42456481 1.098433 3.116122
0.45735648 1.1011317 3.1066456
0.49959818 1.0993 3.0945141
0.535321 1.1014965 3.0841932
-1.0814209 1.1393542 3.0897739
-1.0761365 1.1382965 3.1079979
0.42509955 1.1384389 3.1159654
0.45818454 1.141605 3.1064086
0.49936077 1.1392536 3.0945852
0.53584576 1.1410958 3.0840428
-1.0814209 1.1818386 3.0897739
-1.0759764 1.1791278 3.1085556
0.42474371 1.1792823 3.1160719
0.45818454 1.1804352 3.1064088
0.49900377 1.1798464 3.0946879
0.53584582 1.1796463 3.0840425
-1.0814209 1.2204608 3.0897739
-1.0761365 1.219889 3.1079977
0.42388353 1.2210293 3.1163197
0.45818451 1.2192652 3.1064086
0.49864516 1.2204428 3.0947902
0.53584576 1.2181969 3.0840425
-1.0814209 1.2590828 3.0897739
-1.0762964 1.260628 3.1074398
0.42456481 1.2620294 3.116122
0.45875731 1.2589238 3.1062443
0.49840596 1.2604051 3.0948594
0.53651345 1.2587706 3.0838513
-1.0814209 1.2977051 3.0897739
-1.0761365 1.3014663 3.1079977
0.42456475 1.3009809 3.116122
0.45847133 1.299278 3.1063263
0.49900281 1.2997688 3.0946877
0.53517812 1.3009849 3.0842338
-1.081408 1.3363112 3.0897374
-1.0656935 1.3449101 3.1027005
-1.0186085 1.351693 3.0984621
-0.97987759 1.3516932 3.0984621
-0.94114685 1.3516932 3.0984621
-0.90042675 1.3516935 3.0976555
-0.85982335 1.351693 3.0984621
-0.81918764 1.3516928 3.0992689
-0.77847761 1.3516932 3.0984621
-0.73974681 1.351693 3.0984621
-0.70101613 1.3516932 3.0984623
-0.66035843 1.3516935 3.097656
-0.6196925 1.3516932 3.0984621
-0.58096164 1.351693 3.0984621
-0.54025346 1.351693 3.0992689
-0.49961597 1.3516932 3.0984623
-0.45901078 1.3516934 3.0976555
-0.41829243 1.351693 3.0984621
-0.37956163 1.351693 3.0984621
-0.34083086 1.3516932 3.0984623
-0.30210006 1.351693 3.0984621
-0.26131922 1.351693 3.0992689
-0.21894245 1.3516934 3.0976555
-0.17816159 1.351693 3.0984621
-0.13943081 1.351693 3.0984621
-0.10070004 1.351693 3.0984621
-0.061969247 1.3516933 3.0984623
-0.023238469 1.351693 3.0984621
0.019365391 1.3516932 3.0984626
0.061969247 1.351693 3.0984621
0.10070002 1.3516933 3.0984623
0.13943081 1.351693 3.0984621
0.17816159 1.3516932 3.0984623
0.21894245 1.3516933 3.0976555
0.26131919 1.3516929 3.0992689
0.30210009 1.3516932 3.0984623
0.34083086 1.3516932 3.0984621
0.37956163 1.351693 3.0984621
0.42215231 1.3420588 3.1093299
0.45767942 1.3401501 3.1029928
0.49952802 1.3375303 3.0937989
0.53584576 1.3377035 3.084043
-1.0648494 -1.8857888 3.1473584
0.27638936 -1.891293 3.1587358
0.29944092 -1.8873351 3.1521251
0.33766422 -1.8846985 3.1411641
0.3604705 -1.8807157 3.134526
-1.067243 -1.8598433 3.1390114
0.27638936 -1.8636541 3.1587358
0.29944086 -1.8597538 3.1521256
0.33707783 -1.860332 3.1413324
0.379022 -1.8598559 3.1292059
0.40579858 -1.857309 3.1215277
-1.0672429 -1.8206056 3.1390114
0.27638936 -1.8202214 3.1587358
0.29944092 -1.8203521 3.1521251
0.33766422 -1.8203025 3.1411645
0.37938774 -1.8200901 3.1291018
0.40579858 -1.8182898 3.1215277
-1.0672429 -1.7813679 3.1390114
0.27638936 -1.7767889 3.1587358
0.29944086 -1.7809509 3.1521251
0.33737144 -1.7802393 3.141248
0.37926623 -1.7803235 3.1291366
0.40579858 -1.7792708 3.1215277
-1.0672429 -1.7421305 3.1390114
0.27638936 -1.7373047 3.1587358
0.29885045 -1.7407324 3.1522949
0.33766413 -1.7402015 3.1411641
0.37951005 -1.7399081 3.1290662
0.40579858 -1.7402515 3.1215277
-1.067467 -1.7014929 3.1382298
0.27638936 -1.6978207 3.1587358
0.29944089 -1.7005693 3.1521249
0.3376646 -1.7001517 3.1411638
0.37975359 -1.6994964 3.1289961
0.40579858 -1.7012326 3.1215277
-1.0672435 -1.6597414 3.139009
0.27638936 -1.6583363 3.1587358
0.29914603 -1.6603633 3.15221
0.33795738 -1.6593332 3.1410801
0.37938771 -1.6597254 3.1291015
0.40579858 -1.6622136 3.1215277
-1.0672429 -1.6191962 3.1390114
0.27638936 -1.6188523 3.1587358
0.29944092 -1.6201891 3.1521251
0.33766413 -1.6192677 3.1411641
0.37999678 -1.6199751 3.1289265
0.40579858 -1.6231946 3.1215277
-1.0670182 -1.5787121 3.1397948
0.27638936 -1.5793679 3.1587358
0.29944134 -1.5799997 3.1521254
0.33824983 -1.5792556 3.140996
0.37938771 -1.580196 3.1291015
0.40579861 -1.5802734 3.1215277
-1.0672429 -1.5380948 3.1390116
0.27638936 -1.5398837 3.1587358
0.29944089 -1.5398098 3.1521251
0.33766419 -1.5391704 3.1411638
0.37877741 -1.5404103 3.129276
0.40579858 -1.5373523 3.1215277
-1.0672429 -1.4988569 3.1390114
0.27638936 -1.5003996 3.1587358
0.2997362 -1.4996413 3.152041
0.33766413 -1.4999058 3.1411638
0.37902197 -1.4999973 3.1292059
0.40579858 -1.4983333 3.1215277
-1.0672429 -1.4596194 3.1390114
0.27638936 -1.4609154 3.1587358
0.30003062 -1.4586877 3.1519566
0.33766419 -1.4606413 3.1411638
0.37938771 -1.4602437 3.1291018
0.40579858 -1.4593141 3.1215277
-1.0672429 -1.4203818 3.1390114
0.27638936 -1.4214312 3.1587358
0.29944092 -1.4184566 3.1521251
0.33766413 -1.4213768 3.1411645
0.3792662 -1.4204725 3.1291363
0.40579858 -1.420295 3.1215277
-1.067467 -1.3798245 3.1382296
0.27638936 -1.3819469 3.1587358
0.29944089 -1.3790547 3.1521256
0.33707777 -1.3812788 3.1413324
0.37951007 -1.3800658 3.1290662
0.40579858 -1.381276 3.1215277
-1.067243 -1.3393012 3.1390114
0.27638936 -1.3424628 3.1587358
0.29944089 -1.3396531 3.1521251
0.33737144 -1.3404647 3.141248
0.37975359 -1.3396617 3.1289964
0.40579858 -1.3422568 3.1215277
-1.0672429 -1.3000634 3.1390114
0.27638936 -1.3029785 3.1587358
0.29944089 -1.3002517 3.1521256
0.3376646 -1.2996533 3.1411638
0.37999678 -1.2992603 3.1289265
0.40579858 -1.3032379 3.1215277
-1.067243 -1.2608258 3.1390114
0.27638936 -1.2634944 3.1587358
0.29944092 -1.2608502 3.1521251
0.33766422 -1.2596036 3.1411638
0.37938765 -1.2594633 3.1291013
0.40579861 -1.2603168 3.1215277
-1.0672435 -1.2202799 3.139009
0.27638936 -1.2200618 3.1587358
0.29944092 -1.2214485 3.1521256
0.33795744 -1.219582 3.1410799
0.37938771 -1.2203497 3.1291013
0.40579858 -1.2173958 3.1215277
-1.0672429 -1.1797347 3.1390114
0.27638936 -1.1766291 3.1587358
0.29885042 -1.1812 3.1522946
0.3382498 -1.1787783 3.1409967
0.37938771 -1.1812358 3.1291018
0.40579858 -1.1783768 3.1215277
-1.067243 -1.140497 3.1390114
0.27638936 -1.1371449 3.1587358
0.29944089 -1.141067 3.1521258
0.33766413 -1.1386719 3.1411636
0.37877753 -1.1414275 3.1292768
0.40579858 -1.1393576 3.1215277
-1.067243 -1.1012595 3.1390116
0.27638936 -1.0976607 3.1587358
0.29914609 -1.1008461 3.1522098
0.33766422 -1.0994074 3.1411636
0.37902203 -1.1010234 3.1292059
0.40579858 -1.1003385 3.1215277
-1.0670183 -1.0606459 3.1397948
0.27638936 -1.0581765 3.1587358
0.29944134 -1.0598991 3.1521254
0.33766419 -1.0601429 3.1411641
0.37938863 -1.0599798 3.1291015
0.40579858 -1.0613194 3.1215277
-1.0674671 -1.0189281 3.1382296
0.27638936 -1.0186924 3.1587358
0.29973617 -1.0189551 3.1520407
0.33766419 -1.0208782 3.1411641
0.37975362 -1.0189396 3.1289964
0.40579858 -1.0223004 3.1215277
-1.0672429 -0.9783147 3.1390116
0.27638936 -0.97920811 3.1587358
0.30003062 -0.97801453 3.1519563
0.33766422 -0.98161376 3.1411638
0.37999678 -0.97854537 3.1289268
0.40579858 -0.98328114 3.1215277
-1.0672429 -0.93907708 3.1390114
0.27638936 -0.93972397 3.1587358
0.29944092 -0.93775719 3.1521249
0.33707777 -0.94149244 3.1413324
0.37938771 -0.93873042 3.1291018
0.40579861 -0.94036019 3.1215277
-1.0672429 -0.8998394 3.1390114
0.27638936 -0.90023977 3.1587358
0.29944092 -0.89835578 3.1521251
0.33737141 -0.90068984 3.141248
0.37938768 -0.89961666 3.1291013
0.40579858 -0.89743918 3.1215277
-1.067243 -0.86060184 3.1390114
0.27638936 -0.86075556 3.1587358
0.29944092 -0.85895413 3.1521256
0.3376646 -0.85989046 3.1411638
0.37938771 -0.86050278 3.1291015
0.40579858 -0.85842007 3.1215277
-1.0672436 -0.82005638 3.139009
0.27638936 -0.82127124 3.1587358
0.29944092 -0.8195526 3.1521256
0.33795738 -0.81909424 3.1410801
0.37938771 -0.82138926 3.1291015
0.40579858 -0.81940097 3.1215277
-1.0672429 -0.77951074 3.1390114
0.27638936 -0.7817871 3.1587358
0.29944092 -0.78015095 3.1521256
0.33824977 -0.77830148 3.1409962
0.37877747 -0.78156078 3.129276
0.40579858 -0.78038192 3.1215277
-1.067243 -0.74027312 3.1390114
0.27638936 -0.74230295 3.1587358
0.29944086 -0.74074942 3.1521251
0.33766422 -0.73817348 3.1411638
0.37902203 -0.74116468 3.1292062
0.40579858 -0.74136281 3.1215277
-1.067467 -0.69972163 3.1382296
0.27638936 -0.70281875 3.1587358
0.29944086 -0.70134789 3.1521256
0.33766419 -0.69890904 3.1411638
0.3793886 -0.70013297 3.1291013
0.40579858 -0.70234376 3.1215277
-1.067243 -0.65919232 3.1390114
0.27638936 -0.66333455 3.1587358
0.29944092 -0.6619463 3.1521251
0.33766419 -0.65964448 3.1411638
0.38033226 -0.65851915 3.1288307
0.40579858 -0.66332465 3.1215277
-1.0672429 -0.61995476 3.1390114
0.27638936 -0.6199019 3.1587358
0.29944092 -0.62254471 3.1521256
0.33766419 -0.62037987 3.1411638
0.37938768 -0.61799753 3.1291015
0.40579861 -0.62040359 3.1215277
-1.067243 -0.58071715 3.1390114
0.27638936 -0.57646936 3.1587358
0.29885039 -0.58226395 3.1522949
0.33766422 -0.58111531 3.1411641
0.37938771 -0.57888383 3.1291018
0.40579858 -0.57748264 3.1215277
-1.0670182 -0.54013729 3.1397948
0.27638936 -0.5369851 3.1587358
0.29915738 -0.54054254 3.1522067
0.33766422 -0.54185086 3.1411641
0.37938771 -0.53977001 3.1291013
0.40579858 -0.53846353 3.1215277
-1.067243 -0.49961549 3.1390114
0.27638936 -0.4975009 3.1587358
0.30029309 -0.49817058 3.1518812
0.33766413 -0.50258619 3.1411641
0.37938768 -0.50065625 3.1291018
0.40579858 -0.4994444 3.1215277
-1.067243 -0.4603779 3.1390114
0.27638936 -0.45801669 3.1587358
0.29944089 -0.45705822 3.1521256
0.33681756 -0.46161065 3.1414065
0.37938771 -0.46154246 3.1291018
0.40579858 -0.46042535 3.1215277
-1.0672436 -0.41983271 3.1390092
0.27638936 -0.41853252 3.1587358
0.29944092 -0.41765654 3.1521256
0.33794692 -0.4193902 3.1410825
0.37938771 -0.42242864 3.1291015
0.40579858 -0.42140627 3.1215277
-1.0672429 -0.37928677 3.1390114
0.27638936 -0.37904832 3.1587358
0.29944092 -0.37825504 3.1521251
0.3382498 -0.3778244 3.140996
0.37844232 -0.38187933 3.1293726
0.40579858 -0.38238713 3.1215277
-1.067467 -0.33882526 3.1382296
0.27638936 -0.33956411 3.1587358
0.29944092 -0.33885345 3.1521251
0.33766419 -0.33767512 3.1411641
0.38027751 -0.33911008 3.1288464
0.40579858 -0.34336802 3.1215277
-1.067243 -0.29820609 3.1390114
0.27638936 -0.30007991 3.1587358
0.29944092 -0.29945189 3.1521251
0.33766419 -0.29841053 3.1411638
0.37938771 -0.29726464 3.1291015
0.40579861 -0.30044705 3.1215277
-1.0672429 -0.25896844 3.1390114
0.27638936 -0.26059571 3.1587358
0.29944092 -0.2600503 3.1521256
0.33766413 -0.25914603 3.1411641
0.37938774 -0.25815088 3.1291015
0.40579858 -0.25752601 3.1215277
-1.067243 -0.21973081 3.1390114
0.27638936 -0.22111152 3.1587358
0.29944092 -0.2206488 3.1521256
0.33766419 -0.21988146 3.1411638
0.37938771 -0.2190371 3.1291015
0.40579858 -0.21850693 3.1215277
-1.067243 -0.18049313 3.1390114
0.27638936 -0.18162732 3.1587358
0.29944092 -0.1812472 3.1521251
0.33766413 -0.18061695 3.1411638
0.37938774 -0.17992331 3.1291015
0.40579858 -0.17948785 3.1215277
-1.0672429 -0.14125551 3.1390114
0.27638936 -0.14214312 3.1587358
0.29944095 -0.14184566 3.1521256
0.33766419 -0.14135237 3.1411638
0.37938774 -0.1408096 3.1291013
0.40579858 -0.14046875 3.1215277
-1.067243 -0.10201785 3.1390114
0.27638936 -0.10265892 3.1587358
0.29944089 -0.10244408 3.1521256
0.33766413 -0.10208782 3.1411641
0.37938774 -0.10169581 3.1291018
0.40579858 -0.10144965 3.1215277
-1.067243 -0.062780231 3.1390114
0.27638936 -0.063174717 3.1587358
0.29944089 -0.063042514 3.1521256
0.33766422 -0.062823281 3.1411641
0.37938774 -0.062582031 3.1291015
0.40579858 -0.062430549 3.1215277
-1.067243 -0.023542585 3.1390114
0.27638936 -0.02369052 3.1587358
0.29944092 -0.023640942 3.1521251
0.33766413 -0.023558728 3.1411645
0.37938774 -0.023468262 3.1291015
0.40579858 -0.023411458 3.1215277
-1.067243 0.019618819 3.1390111
0.27638936 0.0197421 3.1587358
0.29944089 0.019700786 3.1521254
0.33766425 0.019632278 3.1411641
0.37938771 0.019556886 3.1291015
0.40579861 0.01950955 3.1215277
-1.067243 0.062780224 3.1390114
0.27638936 0.063174717 3.1587358
0.29944086 0.063042507 3.1521251
0.33766419 0.062823273 3.1411638
0.37938771 0.062582038 3.1291015
0.40579858 0.062430549 3.1215277
-1.067243 0.10201786 3.1390114
0.27638936 0.10265892 3.1587358
0.29944092 0.10244408 3.1521256
0.33766419 0.10208781 3.1411638
0.37938771 0.10169581 3.1291015
0.40579858 0.10144965 3.1215277
-1.067243 0.14125551 3.1390114
0.27638936 0.14214312 3.1587358
0.29944086 0.14184564 3.1521251
0.33766413 0.14135237 3.1411641
0.37938768 0.1408096 3.1291015
0.40579858 0.14046875 3.1215277
-1.0672429 0.18049315 3.1390114
0.27638936 0.18162732 3.1587358
0.29944086 0.1812472 3.1521256
0.33766422 0.18061693 3.1411638
0.37938771 0.17992336 3.1291015
0.40579858 0.17948782 3.1215277
-1.0672429 0.21973078 3.1390114
0.27638936 0.22111152 3.1587358
0.29944092 0.22064878 3.1521251
0.33766413 0.21988147 3.1411645
0.37938768 0.21903709 3.1291013
0.40579858 0.21850692 3.1215277
-1.067243 0.25896844 3.1390114
0.27638936 0.26059571 3.1587358
0.29944089 0.26005033 3.1521251
0.33766422 0.25914603 3.1411641
0.37938771 0.25815088 3.1291015
0.40579858 0.25752601 3.1215277
-1.067243 0.29820606 3.1390114
0.27638936 0.30007991 3.1587358
0.29944092 0.29945192 3.1521256
0.33766419 0.29841053 3.1411645
0.37938771 0.29726467 3.1291015
0.40579861 0.30044702 3.1215277
-1.0674671 0.33882526 3.1382296
0.27638936 0.33956411 3.1587358
0.29944089 0.33885348 3.1521251
0.33766419 0.33767512 3.1411638
0.38027748 0.33911005 3.1288464
0.40579858 0.34336805 3.1215277
-1.067243 0.3792868 3.1390114
0.27638936 0.37904832 3.1587358
0.29944092 0.37825504 3.1521251
0.3382498 0.37782437 3.1409962
0.37844229 0.38187927 3.1293724
0.40579858 0.38238713 3.1215277
-1.0672435 0.41983271 3.139009
0.27638936 0.41853252 3.1587358
