# .PCD v0.7 - Point Cloud Data file format
VERSION 0.7
FIELDS x y z
SIZE 4 4 4
TYPE F F F
COUNT 1 1 1
WIDTH 1526
HEIGHT 1
VIEWPOINT 0 0 0 1 0 0 0
POINTS 1526
DATA ascii
-1.2792497 -1.4220741 2.9473319
-1.2798388 -1.394801 2.9454937
-1.2797841 -1.3642644 2.9456644
-1.2797841 -1.3344768 2.9456642
-1.2797841 -1.3046892 2.9456646
-1.2797841 -1.2749013 2.9456644
-1.2797841 -1.2451135 2.9456642
-1.2797841 -1.2153258 2.9456644
-1.2797841 -1.1855381 2.9456649
-1.2797841 -1.1557503 2.9456646
-1.2797841 -1.1259626 2.9456642
-1.2797841 -1.0961748 2.9456646
-1.2797297 -1.0656121 2.9458334
-1.2799472 -1.0343901 2.9451556
-1.2797841 -1.0038375 2.9456644
-1.2797841 -0.97404975 2.9456644
-1.2797841 -0.94426203 2.9456649
-1.2797841 -0.91447431 2.9456644
-1.2797841 -0.88468659 2.9456646
-1.2797841 -0.85489875 2.9456639
-1.2797841 -0.82511103 2.9456642
-1.2797841 -0.79532331 2.9456642
-1.2797841 -0.76553559 2.9456646
-1.2797841 -0.73574793 2.9456644
-1.2798388 -0.70520103 2.9454935
-1.2797841 -0.67468524 2.9456642
-1.2797841 -0.64489764 2.9456642
-1.2797841 -0.61510986 2.9456644
-1.2797841 -0.5853222 2.9456642
-1.2797841 -0.55553442 2.9456644
-1.2799472 -0.52499759 2.9451556
-1.2797841 -0.49447638 2.9456644
-1.2797841 -0.46468863 2.9456644
-1.2797841 -0.43490085 2.9456646
-1.2797841 -0.40511313 2.9456642
-1.2797841 -0.37532538 2.9456646
-1.2797841 -0.34553763 2.9456644
-1.2797841 -0.31574988 2.9456644
-1.2797841 -0.28596225 2.9456644
-1.2797841 -0.25617447 2.9456646
-1.2797841 -0.22638677 2.9456644
-1.2797841 -0.19659899 2.9456644
-1.2797841 -0.16681127 2.9456644
-1.2797841 -0.13702357 2.9456644
-1.2797841 -0.10723584 2.9456646
-1.2797841 -0.077448092 2.9456646
-1.2797841 -0.047660362 2.9456642
-1.2797841 -0.017872637 2.9456642
-1.2797841 0.014893863 2.9456646
-1.2797841 0.047660366 2.9456646
-1.2797841 0.077448092 2.9456644
-1.2797841 0.10723584 2.9456642
-1.2797841 0.13702355 2.9456642
-1.2797841 0.16681127 2.9456646
-1.2797841 0.19659901 2.9456644
-1.2797841 0.22638677 2.9456646
-1.2797841 0.25617447 2.9456644
-1.2797841 0.28596219 2.9456644
-1.2797841 0.31574991 2.9456642
-1.2797841 0.34553763 2.9456644
-1.2797841 0.37532535 2.9456644
-1.2797841 0.40511313 2.9456644
-1.2797841 0.43490085 2.9456646
-1.2797841 0.46468863 2.9456642
-1.2797841 0.49447632 2.9456644
-1.2799472 0.52499765 2.9451556
-1.2797841 0.55553436 2.9456646
-1.2797841 0.58532208 2.9456642
-1.2797841 0.61510986 2.9456644
-1.2797841 0.64489758 2.9456642
-1.2797841 0.6746853 2.9456646
-1.2798387 0.70520109 2.9454935
-1.2797841 0.73574781 2.9456646
-1.2797841 0.76553559 2.9456642
-1.2797841 0.79532331 2.9456642
-1.2797841 0.82511109 2.9456644
-1.2797841 0.85489887 2.9456646
-1.2797841 0.88468647 2.9456644
-1.2797841 0.91447431 2.9456644
-1.2797841 0.94426203 2.9456644
-1.2797841 0.97404969 2.9456642
-1.2797841 1.0038375 2.9456644
-1.2799469 1.03439 2.9451554
-1.27973 1.0656121 2.9458337
-1.2797841 1.096175 2.9456644
-1.2797841 1.1259626 2.9456644
-1.2797841 1.1557503 2.9456644
-1.2797841 1.1855382 2.9456644
-1.2797841 1.215326 2.9456644
-1.2797841 1.2451136 2.9456644
-1.2797841 1.2749015 2.9456644
-1.2797841 1.304689 2.9456646
-1.2797841 1.3344768 2.9456644
-1.2786754 1.3516225 2.9422283
-1.2586223 1.3519554 2.943917
-1.2288803 1.3519554 2.9424286
-1.1991382 1.3519554 2.9409401
-1.1693963 1.3519554 2.9394517
-1.1396543 1.3519554 2.9379637
-1.1099125 1.3519554 2.9364753
-1.0801706 1.3519554 2.9349868
-1.0504286 1.3519554 2.9334984
-1.0206867 1.3519554 2.9320099
-0.99095058 1.3519638 2.9305365
-0.96022749 1.3519669 2.9283493
-0.92949355 1.3519658 2.927465
-0.89975142 1.3519658 2.9259765
-0.87000918 1.3519657 2.9244878
-0.84026694 1.3519657 2.9229996
-0.81052482 1.3519657 2.9215114
-0.78078282 1.3519657 2.9200232
-0.75004888 1.351965 2.9184818
-0.71931565 1.3519657 2.9169474
-0.68957376 1.3519657 2.9154589
-0.6598314 1.3519657 2.9139705
-0.63008928 1.3519658 2.912482
-0.60034716 1.3519658 2.9109938
-0.57060492 1.3519658 2.9095051
-0.5408628 1.3519658 2.9080172
-0.51112068 1.3519658 2.9065285
-0.48137844 1.3519658 2.9050405
-0.45066994 1.3519669 2.9028499
-0.41992009 1.3519658 2.9019651
-0.39017797 1.3519657 2.9004765
-0.36043581 1.3519658 2.8989882
-0.3306936 1.3519658 2.8974998
-0.30095148 1.3519658 2.8960116
-0.27120936 1.3519658 2.8945234
-0.24146724 1.3519658 2.8930349
-0.21172506 1.3519658 2.8915467
-0.18198293 1.3519658 2.890058
-0.15224078 1.3519658 2.8885701
-0.12249864 1.3519658 2.8870814
-0.09275645 1.3519658 2.8855932
-0.063014343 1.3519657 2.8841047
-0.033272222 1.3519658 2.8826163
-0.0035300404 1.3519658 2.8811281
0.026212119 1.3519658 2.8796396
0.058928452 1.3519655 2.8780022
0.091644816 1.3519658 2.8763652
0.121387 1.3519658 2.874877
0.15113088 1.351976 2.8734069
0.18087325 1.3519762 2.8719187
0.21061566 1.351976 2.8704305
0.24035802 1.351976 2.868942
0.27010038 1.3519762 2.8674536
0.29984275 1.3519759 2.8659651
0.32958513 1.3519759 2.8644769
0.3593275 1.351976 2.8629885
0.38907003 1.351976 2.8615003
0.4188123 1.3519759 2.8600121
0.44855466 1.351976 2.8585236
0.47829708 1.351976 2.8570352
0.50803947 1.3519762 2.855547
0.53872395 1.3519765 2.8533564
0.56949824 1.351976 2.8524711
0.59924066 1.3519759 2.8509827
0.62898302 1.3519759 2.8494942
0.65872538 1.3519762 2.8480062
0.6884678 1.3519759 2.8465178
0.7182101 1.351976 2.8450296
0.74795252 1.351976 2.8435409
0.77769494 1.351976 2.8420527
0.8074373 1.351976 2.8405645
0.83717966 1.351976 2.8390765
0.86791348 1.3519765 2.8375368
0.89864719 1.3519759 2.8360002
0.92838967 1.351976 2.834512
0.95813191 1.3519762 2.8330233
0.98787439 1.3519762 2.8315351
1.0176169 1.3519762 2.8300469
1.0482851 1.3519763 2.8278565
1.0790757 1.351976 2.8269711
1.1088179 1.351976 2.8254826
1.1385603 1.3519762 2.8239942
1.1683027 1.3519762 2.822506
1.1980453 1.3519762 2.8210177
1.2277876 1.351976 2.8195293
1.2575299 1.3519762 2.8180411
1.2872721 1.351976 2.8165529
1.3170146 1.3519759 2.815064
1.3467569 1.351976 2.8135757
1.3764994 1.351976 2.8120875
1.4062418 1.3519762 2.8105991
1.4359841 1.3519762 2.8091109
1.4657265 1.351976 2.8076224
1.4954687 1.3519762 2.8061342
1.5252112 1.351976 2.8046458
1.5559876 1.3519765 2.8024507
1.5866702 1.351976 2.8015702
1.6164125 1.3519759 2.800082
1.6461548 1.3519762 2.7985935
1.6768898 1.3519765 2.7970548
1.7076226 1.351976 2.7955177
1.7373646 1.351976 2.794029
1.767107 1.351976 2.7925406
1.7968496 1.351976 2.7910526
1.826592 1.351976 2.7895641
1.856334 1.351976 2.7880757
1.8860765 1.351976 2.7865872
1.915819 1.3519762 2.785099
1.9394516 1.3519704 2.7884116
-1.2740586 -1.4407784 2.9636793
-1.2685961 -1.4471228 2.9807289
-1.2740586 -1.4227685 2.9636793
-1.2693801 -1.4254959 2.9782825
-1.2740586 -1.3927524 2.9636793
-1.2693801 -1.3952944 2.9782825
-1.2740586 -1.3627361 2.9636793
-1.2693801 -1.3650932 2.9782825
-1.2740586 -1.3327199 2.9636793
-1.2693801 -1.3348916 2.9782825
-1.2740586 -1.3027037 2.9636793
-1.2693801 -1.3046901 2.9782825
-1.2740586 -1.2726876 2.9636793
-1.2693801 -1.2744886 2.9782825
-1.2740586 -1.2426713 2.9636793
-1.2695482 -1.2453104 2.9777575
-1.2740586 -1.2126551 2.9636793
-1.2693801 -1.2161053 2.9782825
-1.2740586 -1.1826389 2.9636793
-1.2693801 -1.185904 2.9782825
-1.2740586 -1.1526226 2.9636793
-1.2693801 -1.1557025 2.9782825
-1.2740586 -1.1226064 2.9636793
-1.2693801 -1.1255012 2.9782825
-1.2740586 -1.0925902 2.9636793
-1.2693801 -1.0952996 2.9782825
-1.2740586 -1.062574 2.9636793
-1.2693801 -1.0650982 2.9782825
-1.2740586 -1.0325578 2.9636793
-1.2693802 -1.0348966 2.9782827
-1.2740586 -1.0025415 2.9636793
-1.2693801 -1.0046953 2.9782829
-1.2740586 -0.9725253 2.9636793
-1.2693801 -0.97449386 2.9782825
-1.2740586 -0.94250911 2.9636793
-1.2693801 -0.94429231 2.9782825
-1.2740586 -0.91249293 2.9636793
-1.2693797 -0.91509759 2.9782836
-1.2740586 -0.88247675 2.9636793
-1.2693801 -0.88590288 2.9782825
-1.2740586 -0.8524605 2.9636793
-1.2693801 -0.85570151 2.9782825
-1.2740586 -0.82244426 2.9636793
-1.2693801 -0.82549995 2.9782829
-1.2740586 -0.79242802 2.9636793
-1.2693801 -0.79529858 2.9782825
-1.2740586 -0.76241189 2.9636793
-1.2693801 -0.76509708 2.9782825
-1.2740586 -0.73239559 2.9636793
-1.26938 -0.73489571 2.9782825
-1.2740586 -0.70237941 2.9636793
-1.2693801 -0.70469421 2.9782825
-1.2740586 -0.67236322 2.9636793
-1.2693801 -0.67449284 2.9782825
-1.2740586 -0.64234704 2.9636793
-1.2693802 -0.64429134 2.9782827
-1.2740586 -0.61233079 2.9636793
-1.2695482 -0.61510813 2.9777579
-1.2740586 -0.58231455 2.9636793
-1.2693801 -0.58590811 2.9782825
-1.2740586 -0.55229837 2.9636793
-1.2693801 -0.55570656 2.9782825
-1.2740586 -0.52228212 2.9636793
-1.2693802 -0.52550519 2.9782827
-1.2740586 -0.49226591 2.9636793
-1.2693802 -0.49530369 2.9782827
-1.2740586 -0.46224967 2.9636793
-1.2693801 -0.46510226 2.9782825
-1.2740586 -0.43223348 2.9636793
-1.2693801 -0.43490085 2.9782825
-1.2740586 -0.4022173 2.9636793
-1.2693801 -0.40469939 2.9782825
-1.2740586 -0.37220106 2.9636793
-1.2693802 -0.37449798 2.9782827
-1.2740586 -0.34218484 2.9636793
-1.2693801 -0.34429651 2.9782825
-1.2740586 -0.31216863 2.9636793
-1.2693802 -0.31409505 2.9782827
-1.2740586 -0.28215241 2.9636793
-1.2693801 -0.28389359 2.9782829
-1.2740586 -0.2521362 2.9636793
-1.2693801 -0.25369215 2.9782825
-1.2740586 -0.22211997 2.9636793
-1.2693801 -0.22349072 2.9782825
-1.2740586 -0.19210379 2.9636793
-1.2693801 -0.19328922 2.9782829
-1.2740586 -0.16208754 2.9636793
-1.2693801 -0.1630878 2.9782825
-1.2740586 -0.13207135 2.9636793
-1.2693801 -0.13288637 2.9782825
-1.2740586 -0.10205513 2.9636793
-1.2693801 -0.10268492 2.9782825
-1.2740586 -0.072038911 2.9636793
-1.2693802 -0.072483473 2.9782829
-1.2740586 -0.042022701 2.9636793
-1.2693801 -0.042282026 2.9782829
-1.2740586 -0.015008108 2.9636793
-1.26938 -0.015100723 2.9782825
-1.2740586 0.012006487 2.9636793
-1.2693801 0.012080579 2.9782825
-1.2740586 0.042022701 2.9636793
-1.2693801 0.04228203 2.9782825
-1.2740586 0.072038911 2.9636793
-1.2693801 0.072483473 2.9782825
-1.2740586 0.10205513 2.9636793
-1.2693801 0.10268492 2.9782825
-1.2740586 0.13207135 2.9636793
-1.2693802 0.13288635 2.9782827
-1.2740586 0.16208756 2.9636793
-1.2693801 0.16308782 2.9782825
-1.2740586 0.19210379 2.9636793
-1.2693801 0.19328928 2.9782825
-1.2740586 0.22211997 2.9636793
-1.2693801 0.22349072 2.9782825
-1.2740586 0.2521362 2.9636793
-1.2693801 0.25369215 2.9782825
-1.2740586 0.28215241 2.9636793
-1.2693801 0.28389359 2.9782825
-1.2740586 0.31216863 2.9636793
-1.2693801 0.31409508 2.9782825
-1.2740586 0.34218487 2.9636793
-1.2693801 0.34429654 2.9782825
-1.2740586 0.37220106 2.9636793
-1.2693801 0.37449795 2.9782829
-1.2740586 0.4022173 2.9636793
-1.2693801 0.40469936 2.9782825
-1.2740586 0.43223348 2.9636793
-1.2693801 0.43490088 2.9782825
-1.2740586 0.46224973 2.9636793
-1.2693801 0.46510229 2.9782825
-1.2740586 0.49226594 2.9636793
-1.2693801 0.49530375 2.9782825
-1.2740586 0.52228212 2.9636793
-1.2693801 0.52550519 2.9782825
-1.2740586 0.55229837 2.9636793
-1.2693801 0.55570668 2.9782825
-1.2740586 0.58231455 2.9636793
-1.2693801 0.58590811 2.9782825
-1.2740586 0.61233079 2.9636793
-1.2695482 0.61510819 2.9777575
-1.2740586 0.64234704 2.9636793
-1.2693801 0.64429128 2.9782825
-1.2740586 0.67236322 2.9636793
-1.2693802 0.67449284 2.9782827
-1.2740586 0.70237941 2.9636793
-1.2693801 0.70469421 2.9782829
-1.2740586 0.73239565 2.9636793
-1.2693801 0.73489571 2.9782825
-1.2740586 0.76241183 2.9636793
-1.2693801 0.76509708 2.9782825
-1.2740586 0.79242808 2.9636793
-1.2693801 0.79529864 2.9782825
-1.2740586 0.82244426 2.9636793
-1.2693801 0.82550001 2.9782829
-1.2740586 0.8524605 2.9636793
-1.2693801 0.85570145 2.9782825
-1.2740586 0.88247675 2.9636793
-1.2693801 0.88590288 2.9782825
-1.2740586 0.91249293 2.9636793
-1.2693797 0.91509753 2.9782834
-1.2740586 0.94250917 2.9636793
-1.2693801 0.94429243 2.9782825
-1.2740586 0.9725253 2.9636793
-1.2693801 0.9744938 2.9782829
-1.2740586 1.0025415 2.9636793
-1.2693801 1.0046953 2.9782825
-1.2740586 1.0325578 2.9636793
-1.2693801 1.0348966 2.9782825
-1.2740586 1.062574 2.9636793
-1.2693801 1.0650982 2.9782829
-1.2740586 1.0925902 2.9636793
-1.2693801 1.0952996 2.9782829
-1.2740586 1.1226065 2.9636793
-1.2693801 1.125501 2.9782825
-1.2740586 1.1526226 2.9636793
-1.2693801 1.1557025 2.9782825
-1.2740586 1.1826389 2.9636793
-1.2693801 1.1859041 2.9782825
-1.2740586 1.2126551 2.9636793
-1.2693802 1.2161052 2.9782825
-1.2740586 1.2426714 2.9636793
-1.2695482 1.2453104 2.9777575
-1.2740586 1.2726876 2.9636793
-1.2693801 1.2744888 2.9782825
-1.2740586 1.3027037 2.9636793
-1.2693801 1.3046901 2.9782825
-1.2740586 1.3327199 2.9636793
-1.2693801 1.3348914 2.9782825
-1.2740586 1.3507296 2.9636793
-1.2563437 1.3519028 2.9756553
-1.2262503 1.351956 2.9742451
-1.1961099 1.351956 2.9727371
-1.1659697 1.351956 2.9712286
-1.1358297 1.351956 2.9697199
-1.1066571 1.3519572 2.9674904
-1.0775671 1.351956 2.9668043
-1.0474269 1.351956 2.9652963
-1.0172867 1.351956 2.963788
-0.98714638 1.3519561 2.96228
-0.95801055 1.3519551 2.9608228
-0.92887533 1.351956 2.9593637
-0.89873499 1.351956 2.9578555
-0.86859477 1.351956 2.956347
-0.83845448 1.351956 2.9548392
-0.80831409 1.3519559 2.9533308
-0.7781738 1.3519559 2.9518228
-0.74803358 1.351956 2.9503143
-0.71789336 1.3519559 2.948806
-0.68775308 1.3519559 2.947298
-0.6576128 1.351956 2.9457893
-0.62747258 1.351956 2.9442811
-0.59733224 1.3519561 2.9427729
-0.56719196 1.351956 2.9412646
-0.53805727 1.3519571 2.9390368
-0.50892967 1.351956 2.9383492
-0.47878936 1.351956 2.936841
-0.44864911 1.3519559 2.9353328
-0.41850892 1.3519559 2.9338243
-0.38836861 1.351956 2.9323168
-0.35822839 1.351956 2.9308083
-0.3280881 1.351956 2.9292994
-0.29794788 1.351956 2.9277909
-0.2678076 1.351956 2.9262829
-0.23766726 1.3519561 2.9247746
-0.20752704 1.351956 2.9232666
-0.17738676 1.3519561 2.9217579
-0.14724648 1.351956 2.9202499
-0.11710627 1.351956 2.9187415
-0.086965986 1.3519561 2.9172332
-0.056825653 1.351956 2.915725
-0.026685432 1.351956 2.9142165
0.0034548193 1.351956 2.9127083
0.030581139 1.3519561 2.911351
0.057707362 1.3519561 2.9099941
0.087847643 1.351956 2.9084854
0.11798795 1.3519561 2.9069772
0.14812818 1.3519561 2.9054687
0.17826852 1.351956 2.9039609
0.20840874 1.351956 2.9024522
0.23855051 1.3519624 2.9009557
0.26869202 1.3519666 2.8994551
0.29883254 1.3519666 2.8979466
0.32897305 1.3519666 2.8964384
0.35911363 1.3519666 2.8949301
0.38925409 1.3519666 2.8934216
0.41939464 1.3519666 2.8919137
0.4495351 1.3519666 2.8904052
0.47967562 1.3519666 2.8888972
0.50981605 1.3519666 2.8873885
0.53995663 1.3519666 2.8858805
0.57009703 1.3519669 2.8843718
0.60023767 1.3519666 2.882864
0.62928766 1.3519664 2.8806376
0.65850025 1.3519666 2.8799484
0.68864083 1.3519666 2.8784401
0.71878123 1.3519666 2.8769314
0.74892175 1.3519666 2.8754234
0.77906227 1.3519666 2.873915
0.80920291 1.3519666 2.8724067
0.83934343 1.3519666 2.8708985
0.86948407 1.3519666 2.86939
0.89962435 1.3519666 2.867882
0.92976487 1.3519666 2.8663738
0.95990551 1.3519666 2.8648653
0.99004591 1.3519666 2.8633571
1.0201863 1.3519669 2.8618488
1.0493226 1.3519666 2.8603923
1.0784581 1.3519666 2.8589327
1.1085986 1.3519666 2.8574243
1.1387392 1.3519666 2.855916
1.1688796 1.3519666 2.8544078
1.1978916 1.3519664 2.8521836
1.2271425 1.3519669 2.8514924
1.2572829 1.3519666 2.8499839
1.2874233 1.3519666 2.8484757
1.317564 1.3519669 2.8469675
1.3477043 1.3519666 2.8454595
1.3778449 1.3519666 2.8439507
1.4079853 1.3519666 2.8424432
1.4381257 1.3519666 2.8409345
1.4682662 1.3519666 2.839426
1.4984068 1.3519666 2.8379176
1.5285474 1.3519666 2.8364093
1.5586878 1.3519666 2.8349011
1.5888284 1.3519666 2.8333929
1.618969 1.3519666 2.8318846
1.6491094 1.3519666 2.8303766
1.6792501 1.3519666 2.8288684
1.7093904 1.3519666 2.8273599
1.7395309 1.3519666 2.8258517
1.7696714 1.3519666 2.8243432
1.7987791 1.3519664 2.8221142
1.827934 1.3519666 2.8214278
1.8580747 1.3519666 2.8199196
1.8882151 1.3519666 2.8184111
1.9183556 1.3519666 2.8169026
1.948496 1.3519666 2.8153942
1.9709257 1.3519694 2.8223746
-1.2574729 -1.4723868 3.0155962
-1.2607975 -1.4534367 3.0051126
-1.2610636 -1.4242626 3.0042779
-1.2608745 -1.3944732 3.0048697
-1.2612524 -1.3655109 3.0036826
-1.2610635 -1.3357223 3.0042782
-1.2610635 -1.3051912 3.0042782
-1.2611266 -1.2754411 3.0040824
-1.2610636 -1.2456577 3.0042779
-1.2610635 -1.2151266 3.0042782
-1.2610636 -1.1845955 3.0042779
-1.2610636 -1.1540642 3.0042779
-1.2610003 -1.1242671 3.0044775
-1.2612525 -1.0953037 3.0036826
-1.2610635 -1.0655286 3.0042782
-1.2610635 -1.0349973 3.0042782
-1.2610635 -1.0044663 3.0042779
-1.2610635 -0.97393507 3.0042782
-1.2609308 -0.94492269 3.0046961
-1.2610635 -0.91592103 3.0042782
-1.2610635 -0.88538998 3.0042782
-1.2610635 -0.8548587 3.0042782
-1.2612524 -0.82509148 3.0036826
-1.2610636 -0.79532999 3.0042779
-1.2610003 -0.76558387 3.0044775
-1.2610636 -0.73579192 3.0042779
-1.2610636 -0.70526069 3.0042779
-1.2610636 -0.67472947 3.0042779
-1.2611264 -0.64495027 3.0040824
-1.2610632 -0.61519617 3.0042782
-1.2610635 -0.58466488 3.0042779
-1.2614623 -0.55435461 3.0030205
-1.2610635 -0.52513629 3.0042782
-1.2610635 -0.49460512 3.0042782
-1.2608744 -0.46482775 3.0048692
-1.2610635 -0.43506223 3.0042779
-1.2610636 -0.404531 3.0042779
-1.2610004 -0.3747524 3.004478
-1.2610636 -0.34499273 3.0042779
-1.2611266 -0.31524026 3.0040824
-1.2612525 -0.28627628 3.0036829
-1.2610635 -0.25646189 3.0042782
-1.2610636 -0.22593069 3.0042779
-1.2610635 -0.19539954 3.0042782
-1.2610636 -0.16486837 3.0042779
-1.2610635 -0.1343372 3.0042782
-1.2610632 -0.10380601 3.0042782
-1.2610636 -0.073274828 3.0042779
-1.2610636 -0.042743653 3.0042779
-1.2610635 -0.015265591 3.0042777
-1.2610635 0.012212471 3.0042782
-1.2610635 0.042743649 3.0042777
-1.2610635 0.073274828 3.0042782
-1.2610636 0.10380601 3.0042779
-1.2610636 0.13433719 3.0042779
-1.2610636 0.16486834 3.0042779
-1.2610635 0.19539955 3.0042782
-1.2610636 0.22593074 3.0042779
-1.2610632 0.25646189 3.0042782
-1.2612522 0.28627628 3.0036826
-1.2611266 0.31524032 3.0040827
-1.2610636 0.34499273 3.0042779
-1.2610004 0.3747524 3.0044777
-1.2610635 0.40453097 3.0042782
-1.2610636 0.43506217 3.0042779
-1.2608746 0.46482769 3.0048695
-1.2610635 0.49460506 3.0042782
-1.2610636 0.52513623 3.0042782
-1.2612524 0.55488414 3.0036826
-1.2610636 0.58466494 3.0042779
-1.2610636 0.61519617 3.0042779
-1.2611266 0.64495021 3.0040827
-1.2610635 0.67472953 3.0042782
-1.2610635 0.70526069 3.0042782
-1.2610636 0.73579198 3.0042779
-1.2610003 0.76558387 3.0044775
-1.2610636 0.79532999 3.0042779
-1.2612524 0.82509142 3.0036826
-1.2610635 0.8548587 3.0042782
-1.2610636 0.88538992 3.0042779
-1.2610635 0.91592103 3.0042782
-1.2609308 0.94492257 3.0046961
-1.2610636 0.97393495 3.0042779
-1.2610636 1.0044662 3.0042779
-1.2610635 1.0349975 3.0042782
-1.2610635 1.0655285 3.0042779
-1.2612524 1.0953037 3.0036826
-1.2610003 1.1242672 3.0044775
-1.2610636 1.1540642 3.0042779
-1.2610636 1.1845955 3.0042779
-1.2610636 1.2151265 3.0042779
-1.2610636 1.2456577 3.0042779
-1.2611264 1.2754409 3.0040827
-1.2610632 1.3051913 3.0042782
-1.2610635 1.3357224 3.0042782
-1.2502381 1.3519104 3.0071681
-1.2244819 1.3519456 3.0061595
-1.1960555 1.351946 3.005533
-1.1676 1.3519461 3.0048974
-1.1380023 1.351946 3.002625
-1.107453 1.351946 3.0010967
-1.0769038 1.351946 2.999568
-1.0463547 1.351946 2.9980395
-1.0158055 1.351946 2.9965105
-0.98525625 1.351946 2.9949818
-0.95573604 1.3519456 2.9927108
-0.92620385 1.351946 2.9920266
-0.89667308 1.351946 2.9905512
-0.86714184 1.351946 2.9890711
-0.83659267 1.351946 2.9875422
-0.80604351 1.3519459 2.9860137
-0.77644396 1.3519462 2.9853232
-0.7469725 1.351946 2.9830575
-0.71752942 1.3519456 2.9807906
-0.68791997 1.351946 2.9801028
-0.65737069 1.351946 2.9785738
-0.62682152 1.351946 2.9770451
-0.59627229 1.351946 2.9755163
-0.56674117 1.351946 2.974041
-0.53721046 1.351946 2.9725609
-0.50666136 1.3519459 2.9710319
-0.47611207 1.351946 2.9695032
-0.44661134 1.3519456 2.9672332
-0.41705954 1.351946 2.9665482
-0.38651034 1.351946 2.9650195
-0.35692069 1.3519462 2.9643295
-0.32743934 1.351946 2.9620633
-0.29689005 1.351946 2.9605348
-0.26735875 1.351946 2.959059
-0.23782831 1.351946 2.9575791
-0.20840463 1.3519456 2.9553132
-0.17877582 1.351946 2.9546239
-0.14822656 1.351946 2.9530954
-0.11767737 1.351946 2.9515662
-0.0871282 1.351946 2.9500377
-0.056578979 1.351946 2.948509
-0.026029751 1.351946 2.9469802
0.0045194477 1.351946 2.9454517
0.032013737 1.3519459 2.9440758
0.059508018 1.351946 2.9426999
0.090057246 1.351946 2.9411714
0.12060644 1.351946 2.9396424
0.15115562 1.351946 2.9381137
0.18170485 1.351946 2.9365852
0.21225408 1.351946 2.9350564
0.24280325 1.351946 2.9335277
0.27335247 1.3519459 2.931999
0.30290216 1.3519455 2.9297264
0.33240503 1.351946 2.9290438
0.36193573 1.351946 2.9275684
0.39146686 1.351946 2.9260881
0.42201605 1.351946 2.9245594
0.45157644 1.3519462 2.9238713
0.48108706 1.351946 2.9216034
0.5116362 1.3519459 2.9200742
0.54110873 1.3519456 2.9178061
0.57068872 1.351946 2.9171195
0.60123801 1.351946 2.9155908
0.63178706 1.351946 2.914062
0.66131806 1.351946 2.9125865
0.69084895 1.351946 2.9111066
0.72139812 1.351946 2.9095778
0.7519474 1.3519459 2.9080491
0.78249663 1.3519459 2.9065204
0.81202662 1.3519456 2.904249
0.84154916 1.351946 2.9035649
0.87109959 1.3519462 2.9028776
0.90062022 1.351946 2.900609
0.93116939 1.351946 2.8990803
0.96171868 1.351946 2.8975518
0.9912498 1.351946 2.896076
1.0207804 1.351946 2.8945961
1.0502335 1.3519456 2.8923287
1.0798329 1.351946 2.8916411
1.1103821 1.351946 2.8901124
1.1409312 1.351946 2.8885837
1.1714804 1.351946 2.8870547
1.2020297 1.351946 2.8855259
1.232579 1.351946 2.8839972
1.2622553 1.3519462 2.8833034
1.2906322 1.351946 2.8810949
1.3189793 1.3519456 2.87888
1.3486658 1.3519459 2.8781884
1.3792151 1.351946 2.8766596
1.4097643 1.351946 2.8751309
1.4403136 1.351946 2.8736022
1.4708625 1.351946 2.8720732
1.501417 1.3519502 2.8705518
1.5319738 1.3519565 2.8690341
1.5615541 1.3519571 2.8667617
1.5910267 1.3519566 2.8660793
1.6205586 1.3519574 2.8646049
1.6500891 1.3519566 2.8631234
1.6796087 1.3519553 2.8624346
1.7091604 1.3519566 2.8601673
1.73971 1.3519566 2.8586385
1.7702594 1.3519566 2.85711
1.8008087 1.3519566 2.8555813
1.830302 1.3519571 2.8533132
1.8598616 1.3519566 2.8526261
1.8904111 1.3519566 2.8510971
1.9199437 1.3519574 2.8496234
1.9494737 1.3519566 2.8481419
1.9790894 1.3519553 2.8474483
2.0005336 1.3519483 2.852963
-1.2505673 -1.4793131 3.0371523
-1.2513517 -1.4546319 3.0347035
-1.2511576 -1.4244726 3.0353096
-1.2515467 -1.3951312 3.0340948
-1.251352 -1.3649724 3.0347033
-1.2514166 -1.3348405 3.034502
-1.251352 -1.3046864 3.0347035
-1.2512866 -1.2745249 3.0349069
-1.2513521 -1.2443956 3.0347033
-1.251547 -1.2142376 3.0340948
-1.2511578 -1.1848943 3.0353096
-1.2514163 -1.1555362 3.034502
-1.2513521 -1.1253672 3.0347033
-1.251352 -1.0944504 3.0347035
-1.2514887 -1.0650663 3.034276
-1.251352 -1.0357126 3.0347035
-1.2513518 -1.0047954 3.0347033
-1.2514163 -0.97461247 3.034502
-1.2511578 -0.94531089 3.0353093
-1.251352 -0.91513109 3.0347035
-1.2515469 -0.88497341 3.0340948
-1.2512866 -0.85565215 3.0349069
-1.2513521 -0.82547635 3.0347033
-1.2513517 -0.79455936 3.0347035
-1.2514166 -0.76439369 3.034502
-1.2513518 -0.73427349 3.0347033
-1.2513529 -0.70490229 3.0347009
-1.2513518 -0.67553109 3.034703
-1.2512866 -0.64539856 3.0349071
-1.251352 -0.61524028 3.0347033
-1.2514166 -0.58508927 3.034502
-1.251352 -0.55495435 3.0347035
-1.2515469 -0.52480525 3.0340948
-1.251352 -0.49467334 3.0347035
-1.2511578 -0.46451935 3.0353093
-1.2512866 -0.43514472 3.0349069
-1.2513521 -0.40500408 3.0347033
-1.2514163 -0.37487048 3.034502
-1.2515469 -0.34553096 3.0340948
-1.251352 -0.31535432 3.0347035
-1.2513517 -0.28443718 3.0347035
-1.2513517 -0.2535201 3.0347035
-1.2510779 -0.22405082 3.0355582
-1.2514166 -0.19556621 3.034502
-1.2515467 -0.16625662 3.034095
-1.251352 -0.13603519 3.0347033
-1.251352 -0.10511809 3.0347035
-1.251352 -0.07420101 3.0347035
-1.2513517 -0.043283921 3.0347035
-1.2513517 -0.015458541 3.034703
-1.2513521 0.012366834 3.0347033
-1.2513517 0.043283921 3.0347035
-1.2513517 0.07420101 3.0347035
-1.251352 0.10511809 3.0347035
-1.251352 0.13603519 3.0347033
-1.2515469 0.16625661 3.0340948
-1.2514166 0.19556618 3.034502
-1.2510782 0.22405082 3.035558
-1.2513518 0.2535201 3.0347033
-1.2513518 0.28443718 3.0347033
-1.2513518 0.31535432 3.034703
-1.2515469 0.34553093 3.0340948
-1.2514163 0.37487048 3.034502
-1.2513517 0.40500411 3.0347035
-1.2512866 0.43514478 3.0349069
-1.2511578 0.46451941 3.0353093
-1.251352 0.49467334 3.0347035
-1.2515467 0.52480525 3.0340948
-1.251352 0.55495435 3.0347035
-1.2514166 0.58508933 3.034502
-1.251352 0.61524028 3.0347033
-1.2512865 0.6453985 3.0349069
-1.251352 0.67553103 3.0347035
-1.2513529 0.70490223 3.0347009
-1.251352 0.73427349 3.0347035
-1.2514163 0.76439369 3.034502
-1.251352 0.7945593 3.0347033
-1.251352 0.82547635 3.0347035
-1.2512865 0.85565227 3.0349071
-1.251547 0.88497341 3.0340948
-1.2513518 0.91513103 3.034703
-1.2511578 0.94531077 3.0353093
-1.2514164 0.97461259 3.0345023
-1.251352 1.0047957 3.0347033
-1.2513518 1.0357126 3.0347033
-1.2514887 1.0650665 3.0342762
-1.251352 1.0944502 3.0347033
-1.2513521 1.1253672 3.0347033
-1.2514166 1.1555363 3.034502
-1.2511579 1.1848943 3.0353093
-1.251547 1.2142375 3.0340948
-1.2513521 1.2443956 3.0347033
-1.2512866 1.2745248 3.0349071
-1.2513521 1.3046864 3.034703
-1.2514166 1.3348405 3.034502
-1.2469352 1.351557 3.0342402
-1.2259734 1.351923 3.0356271
-1.1964959 1.3519229 3.0335217
-1.1655979 1.3519229 3.0319755
-1.1346999 1.3519229 3.0304291
-1.103802 1.3519229 3.0288832
-1.0729041 1.3519229 3.0273368
-1.0434797 1.3519226 3.025234
-1.0158141 1.351923 3.0251105
-0.98638988 1.3519229 3.0230074
-0.95549178 1.3519229 3.0214612
-0.924604 1.3519391 3.0199459
-0.89370561 1.3519391 3.0183992
-0.86432779 1.3519408 3.0163019
-0.83500606 1.3519391 3.0154619
-0.80566233 1.3519375 3.0146208
-0.77629215 1.3519391 3.0125239
-0.74539375 1.3519391 3.0109775
-0.71449554 1.3519391 3.0094314
-0.6851629 1.3519406 3.0073366
-0.65579581 1.3519391 3.006494
-0.62489736 1.3519391 3.0049477
-0.59550047 1.3519374 3.0041039
-0.56618357 1.3519391 3.0020094
-0.53528529 1.3519391 3.0004635
-0.5059979 1.3519408 2.9983704
-0.47658539 1.3519391 2.9975266
-0.44568706 1.3519391 2.9959803
-0.41478872 1.3519391 2.9944344
-0.38533878 1.3519374 2.9935877
-0.35607484 1.3519391 2.9914961
-0.32683301 1.3519406 2.9894052
-0.29737514 1.3519391 2.9885585
-0.26647684 1.3519391 2.9870124
-0.23557854 1.3519391 2.9854653
-0.20468023 1.3519391 2.9839194
-0.17517701 1.3519374 2.9830704
-0.14766815 1.3519408 2.9804392
-0.11816496 1.3519391 2.9795899
-0.087266631 1.3519391 2.9780438
-0.056368336 1.3519391 2.9764972
-0.025470003 1.3519391 2.9749515
0.0054282695 1.3519391 2.9734051
0.033236824 1.351939 2.972014
0.061045282 1.3519391 2.9706223
0.091943584 1.3519391 2.9690759
0.12284189 1.3519391 2.9675298
0.15374026 1.3519391 2.9659836
0.18463853 1.3519391 2.9644372
0.21553686 1.3519391 2.9628909
0.24497744 1.3519408 2.9607904
0.27261159 1.3519374 2.9606626
0.3020522 1.3519391 2.9585614
0.33295053 1.3519391 2.9570155
0.36384887 1.3519391 2.9554694
0.39474714 1.3519391 2.953923
0.42414233 1.3519408 2.9518247
0.45344689 1.3519391 2.9509854
0.48277333 1.3519374 2.9501452
0.51216072 1.3519391 2.9480472
0.54305905 1.3519391 2.9465013
0.57395738 1.3519391 2.9449549
0.60330719 1.3519408 2.9428589
0.63265711 1.3519391 2.9420176
0.66355544 1.3519391 2.9404719
0.69293499 1.3519375 2.9396284
0.72226918 1.3519391 2.9375334
0.75316763 1.3519391 2.935987
0.78247201 1.3519408 2.9338934
0.81186736 1.3519391 2.9330497
0.84276557 1.3519391 2.9315035
0.87366402 1.3519391 2.9299572
0.90309668 1.3519374 2.9291115
0.93237782 1.3519391 2.9270191
0.96163702 1.3519408 2.9249275
0.99107766 1.3519391 2.9240813
1.021976 1.3519391 2.9225352
1.0528742 1.3519391 2.9209893
1.0837725 1.3519391 2.9194429
1.1132585 1.3519375 2.9185946
1.1408018 1.3519408 2.915962
1.170288 1.3519391 2.9151144
1.2011862 1.3519391 2.9135675
1.2320844 1.3519391 2.9120212
1.2629828 1.3519391 2.9104748
1.2938809 1.3519391 2.9089289
1.3234203 1.3519374 2.9080777
1.3508571 1.3519408 2.9054506
1.3803965 1.3519391 2.9045992
1.4112945 1.3519391 2.9030533
1.4421932 1.3519391 2.9015071
1.4730912 1.3519391 2.899961
1.5039896 1.3519391 2.8984149
1.5318078 1.3519473 2.8970373
1.5596265 1.3519554 2.8956609
1.590525 1.3519554 2.8941145
1.6214238 1.3519554 2.8925683
1.6523225 1.3519553 2.891022
1.6832211 1.3519554 2.8894758
1.7126316 1.3519552 2.8873732
1.7403272 1.3519557 2.8872483
1.7697376 1.3519554 2.8851464
1.8006358 1.3519554 2.8836
1.8315349 1.3519554 2.8820541
1.8624332 1.3519554 2.8805079
1.891798 1.3519552 2.8784077
1.9211339 1.3519554 2.8775704
1.9520324 1.3519554 2.876024
1.981398 1.3519557 2.875185
2.0095646 1.3519557 2.8737755
-1.2395035 -1.5050566 3.07184
-1.2413242 -1.4849979 3.0661156
-1.2411939 -1.4552423 3.0665312
-1.2415911 -1.4255078 3.0652821
-1.2414576 -1.3957611 3.0657003
-1.2413918 -1.3652264 3.0659075
-1.2413242 -1.3346833 3.0661149
-1.2413915 -1.3041638 3.0659077
-1.2413932 -1.2744173 3.0659068
-1.2414576 -1.2454717 3.0657003
-1.2413917 -1.2149246 3.0659072
-1.2413243 -1.184369 3.0661151
-1.2415913 -1.1546453 3.0652823
-1.2411937 -1.1248978 3.0665312
-1.2414573 -1.0951825 3.0657003
-1.2413917 -1.0646228 3.0659077
-1.2415313 -1.0348675 3.0654674
-1.2413918 -1.0051334 3.0659075
-1.2412519 -0.97538334 3.0663474
-1.2413918 -0.94563389 3.0659075
-1.2415911 -0.91508222 3.0652819
-1.2413244 -0.88539594 3.0661154
-1.2413918 -0.85483152 3.0659075
-1.2414573 -0.8242743 3.0657001
-1.2411939 -0.79454821 3.0665312
-1.2415913 -0.76481855 3.0652823
-1.2413243 -0.73508143 3.0661151
-1.2414573 -0.70529544 3.0657001
-1.2413915 -0.67478496 3.0659075
-1.2413933 -0.64503825 3.0659065
-1.2413915 -0.61529052 3.0659075
-1.2413243 -0.58476686 3.0661151
-1.2414573 -0.55500621 3.0657001
-1.2415913 -0.52526081 3.0652826
-1.2411939 -0.4955245 3.0665312
-1.2413915 -0.46498868 3.0659075
-1.2413244 -0.43445241 3.0661154
-1.2414573 -0.40471703 3.0656998
-1.2415911 -0.37499693 3.0652826
-1.2413915 -0.34444165 3.0659072
-1.2411939 -0.31386396 3.0665312
-1.2413901 -0.28493896 3.0659087
-1.2415911 -0.25603816 3.0652821
-1.2413915 -0.22545271 3.0659072
-1.2413915 -0.19413984 3.0659077
-1.2411938 -0.16352418 3.0665314
-1.2416128 -0.13552389 3.0652101
-1.2413917 -0.10646378 3.0659077
-1.2413915 -0.0751509 3.0659075
-1.2413915 -0.043838028 3.0659075
-1.2413915 -0.015656438 3.0659072
-1.2413915 0.012525151 3.0659077
-1.2413918 0.043838032 3.0659075
-1.2413918 0.075150907 3.0659075
-1.2413918 0.10646378 3.0659075
-1.241613 0.13552387 3.0652099
-1.2411939 0.16352415 3.0665312
-1.2413917 0.19413982 3.0659077
-1.2413915 0.22545271 3.0659072
-1.2415911 0.25603822 3.0652821
-1.2413899 0.28493896 3.0659082
-1.2411937 0.31386393 3.0665312
-1.2413915 0.34444162 3.0659075
-1.2415911 0.37499705 3.0652821
-1.2414573 0.40471706 3.0657001
-1.2413245 0.43445247 3.0661151
-1.2413915 0.46498871 3.0659072
-1.2411939 0.4955245 3.0665312
-1.2415911 0.52526075 3.0652823
-1.2414571 0.55500615 3.0656998
-1.2413243 0.58476686 3.0661151
-1.2413917 0.61529046 3.0659072
-1.2413933 0.64503831 3.0659065
-1.2413915 0.6747849 3.0659075
-1.2414573 0.70529538 3.0657001
-1.2413243 0.73508132 3.0661151
-1.2415912 0.76481855 3.0652821
-1.2411939 0.79454815 3.0665312
-1.2414573 0.82427436 3.0656998
-1.2413915 0.85483152 3.0659075
-1.2413243 0.88539577 3.0661151
-1.2415911 0.91508222 3.0652821
-1.2413915 0.94563383 3.0659077
-1.2412521 0.97538346 3.0663478
-1.2413915 1.0051334 3.0659072
-1.2415313 1.0348676 3.0654674
-1.2413918 1.0646228 3.0659075
-1.2414573 1.0951825 3.0657003
-1.2411939 1.1248978 3.0665312
-1.2415911 1.1546453 3.0652823
-1.2413244 1.1843687 3.0661156
-1.2413917 1.2149247 3.0659077
-1.2414576 1.2454717 3.0657005
-1.2413933 1.2744174 3.0659065
-1.2413917 1.3041638 3.0659077
-1.2413243 1.3346831 3.0661151
-1.2436844 1.3512387 3.0575068
-1.2251101 1.351932 3.0636749
-1.1938537 1.3519323 3.0621104
-1.162598 1.3519322 3.0605466
-1.132336 1.351932 3.0582013
-1.1032213 1.3519322 3.0575778
-1.0740765 1.3519324 3.0569451
-1.0438249 1.351932 3.0546026
-1.0125687 1.3519322 3.0530391
-0.98235685 1.351932 3.0506959
-0.953192 1.3519322 3.0500698
-0.92399788 1.3519324 3.0494347
-0.89379567 1.3519322 3.0470951
-0.8636229 1.3519318 3.0447545
-0.83441889 1.3519322 3.0441263
-0.80420458 1.3519322 3.0426118
-0.77391911 1.3519326 3.0419242
-0.74488926 1.351932 3.0388129
-0.7146039 1.3519323 3.0381279
-0.68438971 1.3519323 3.0366182
-0.65417552 1.351932 3.0351043
-0.62291956 1.3519322 3.0335398
-0.59374732 1.3519323 3.0320771
-0.56457472 1.351932 3.0306206
-0.53436041 1.3519322 3.0291109
-0.5041464 1.3519322 3.0275965
-0.47395408 1.351932 3.0252547
-0.44473842 1.3519323 3.0254517
-0.41454574 1.3519322 3.0231125
-0.38433105 1.3519323 3.0216029
-0.35522032 1.351932 3.0193131
-0.32495457 1.3519322 3.0186296
-0.29369858 1.3519323 3.0170653
-0.26339334 1.3519323 3.0163772
-0.23430192 1.351932 3.0140953
-0.20524096 1.3519319 3.0118082
-0.17492554 1.3519322 3.0111215
-0.14366946 1.351932 3.0095577
-0.11331461 1.3519323 3.008867
-0.08547622 1.3519319 3.0057535
-0.056152508 1.3519323 3.005178
-0.024896368 1.3519322 3.0036144
0.0063596219 1.351932 3.0020499
0.034490071 1.3519319 3.0006423
0.062620543 1.3519322 2.9992347
0.093876593 1.3519323 2.9976702
0.12513268 1.3519323 2.9961061
0.15638873 1.351932 2.9945424
0.18562344 1.3519317 2.9921875
0.21363363 1.3519324 2.992506
0.24390572 1.3519322 2.9901628
0.27516174 1.3519322 2.9885988
0.30539423 1.351932 2.9862549
0.3345384 1.3519322 2.9856298
0.36371231 1.3519324 2.9849958
0.39393491 1.3519322 2.9826546
0.4251909 1.3519322 2.981091
0.45537362 1.3519319 2.97875
0.48456755 1.3519322 2.978122
0.51478195 1.351932 2.9766078
0.54505736 1.3519326 2.9759207
0.57410723 1.3519319 2.9728081
0.60438251 1.3519322 2.9721239
0.63459682 1.3519323 2.970614
0.6648109 1.3519322 2.9690998
0.6939832 1.3519322 2.9676371
0.72315562 1.3519322 2.9661801
0.7544117 1.3519322 2.9646158
0.78462607 1.3519322 2.9631066
0.81484008 1.3519322 2.9615922
0.84504259 1.3519319 2.95925
0.87423801 1.3519326 2.9594479
0.90444088 1.3519322 2.9571083
0.93465531 1.3519322 2.9555986
0.96377635 1.3519319 2.9533086
0.99403191 1.3519323 2.9526246
1.0243168 1.3519326 2.9519374
1.0534284 1.3519322 2.9496551
1.0825099 1.3519319 2.9473665
1.1128049 1.3519322 2.9466813
1.144061 1.351932 2.9451177
1.1743954 1.3519324 2.9444277
1.2034576 1.351932 2.9421475
1.2324892 1.3519319 2.9398615
1.2628341 1.3519323 2.9391739
1.2940899 1.3519323 2.9376094
1.3253462 1.3519323 2.9360456
1.3534766 1.351932 2.9346375
1.3816071 1.351932 2.9332302
1.412863 1.351932 2.9316664
1.444119 1.3519322 2.9301016
1.4753753 1.3519322 2.9285378
1.5035056 1.351932 2.9271297
1.5316361 1.351932 2.9257224
1.562892 1.3519322 2.9241583
1.5941483 1.3519322 2.9225941
1.6243908 1.351932 2.9202502
1.6535246 1.3519322 2.919625
1.6826888 1.3519326 2.9189916
1.7129213 1.3519322 2.9166508
1.7431242 1.351932 2.9143081
1.7733399 1.3519322 2.9136269
1.8035541 1.3519323 2.9121175
1.8327675 1.3519324 2.9114814
1.8629501 1.3519322 2.909143
1.8931038 1.3519319 2.9068036
1.9223272 1.3519322 2.9061737
1.9525412 1.3519323 2.9046595
1.9828461 1.3519323 2.9039714
2.0118375 1.3519319 2.9008615
2.0384238 1.351933 2.9038475
-1.2306725 -1.5134883 3.0994067
-1.2310899 -1.4852054 3.098103
-1.2309545 -1.4550622 3.0985267
-1.231364 -1.4249449 3.0972483
-1.2312266 -1.3948127 3.0976772
-1.2310899 -1.3646646 3.0981033
-1.2311597 -1.3353324 3.0978861
-1.2312266 -1.3060082 3.0976772
-1.2311587 -1.27507 3.0978897
-1.2310901 -1.2441236 3.098103
-1.2311598 -1.2148019 3.0978858
-1.2312266 -1.1854877 3.0976775
-1.2311589 -1.1545393 3.0978892
-1.2313029 -1.1243833 3.0974393
-1.2309545 -1.0950563 3.0985267
-1.2312266 -1.0649675 3.0976772
-1.2313029 -1.0355873 3.0974391
-1.2311587 -1.0054673 3.0978892
-1.2310147 -0.97533143 3.0983388
-1.2311589 -0.94519705 3.0978892
-1.2313029 -0.91507858 3.0974393
-1.2311587 -0.88493693 3.0978894
-1.2310147 -0.8547793 3.0983388
-1.231364 -0.82546103 3.0972483
-1.2310899 -0.79535943 3.0981033
-1.2312266 -0.76517725 3.0976772
-1.2309545 -0.73504472 3.0985267
-1.231364 -0.70496148 3.0972483
-1.2310899 -0.67481869 3.0981033
-1.2312268 -0.64465702 3.097677
-1.2311597 -0.61533201 3.0978861
-1.2311587 -0.5851993 3.0978892
-1.2310901 -0.5542779 3.098103
-1.231447 -0.5249241 3.0969896
-1.2309545 -0.49559984 3.098527
-1.2310901 -0.46545833 3.0981028
-1.2312268 -0.43533239 3.097677
-1.231364 -0.40522227 3.0972483
-1.2309546 -0.37503874 3.0985267
-1.2310899 -0.34491754 3.0981033
-1.231447 -0.31565699 3.0969896
-1.2311587 -0.28546682 3.0978892
-1.2309546 -0.25447753 3.0985267
-1.2311577 -0.22519332 3.0978923
-1.231364 -0.19593355 3.0972486
-1.2311587 -0.16493639 3.0978892
-1.2309545 -0.13391635 3.0985267
-1.231387 -0.10556971 3.0971766
-1.2311587 -0.076124482 3.0978892
-1.2311589 -0.044405956 3.0978892
-1.2311589 -0.015859269 3.0978894
-1.2311589 0.012687415 3.0978892
-1.2311587 0.044405948 3.0978892
-1.2311587 0.076124489 3.0978892
-1.2313873 0.10556971 3.0971766
-1.2309545 0.13391635 3.0985267
-1.2311587 0.16493639 3.0978892
-1.231364 0.19593355 3.0972483
-1.2311577 0.22519332 3.0978923
-1.2309545 0.25447756 3.098527
-1.2311589 0.28546682 3.0978892
-1.231447 0.31565699 3.0969896
-1.2310899 0.34491754 3.0981033
-1.2309545 0.37503871 3.098527
-1.231364 0.4052223 3.0972483
-1.2312266 0.43533245 3.0976772
-1.2310901 0.46545833 3.0981033
-1.2309545 0.49559984 3.0985267
-1.231447 0.5249241 3.0969896
-1.2310899 0.5542779 3.098103
-1.2311587 0.5851993 3.0978892
-1.2311598 0.61533201 3.0978858
-1.2312266 0.64465702 3.0976775
-1.2310901 0.67481858 3.098103
-1.231364 0.70496148 3.0972483
-1.2309545 0.73504472 3.0985267
-1.2312266 0.76517731 3.0976772
-1.2310899 0.79535949 3.0981035
-1.231364 0.82546103 3.0972483
-1.2310148 0.85477918 3.0983386
-1.2311589 0.88493693 3.0978892
-1.2313029 0.91507858 3.0974393
-1.2311589 0.94519705 3.0978892
-1.2310148 0.97533143 3.0983386
-1.2311589 1.0054675 3.0978892
-1.2313029 1.0355873 3.0974393
-1.2312266 1.0649675 3.0976772
-1.2309546 1.0950563 3.0985267
-1.2313029 1.1243832 3.0974393
-1.2311587 1.1545395 3.0978892
-1.2312266 1.1854879 3.0976772
-1.2311598 1.214802 3.0978863
-1.2310901 1.2441237 3.0981033
-1.2311587 1.2750697 3.0978894
-1.2312267 1.306008 3.0976775
-1.2311597 1.3353324 3.0978861
-1.2218987 1.3517655 3.0937302
-1.1911267 1.3519086 3.0912602
-1.1609831 1.3519083 3.0890913
-1.1327308 1.3519087 3.0889983
-1.1025873 1.3519086 3.0868297
-1.070966 1.3519086 3.085247
-1.0408537 1.3519083 3.0830798
-1.012539 1.3519087 3.0829837
-0.98242676 1.3519086 3.0808165
-0.95080554 1.3519086 3.0792339
-0.92072439 1.3519083 3.0770683
-0.89234698 1.3519088 3.0769691
-0.862266 1.3519086 3.0748036
-0.8322081 1.3519083 3.072639
-0.80219305 1.3519086 3.0717974
-0.77215505 1.3519087 3.0709548
-0.74210531 1.3519086 3.0687904
-0.71207875 1.3519083 3.0666275
-0.68203247 1.3519086 3.0657842
-0.65196311 1.3519088 3.0649402
-0.62194479 1.3519086 3.0627773
-0.59194928 1.3519083 3.060616
-0.56187177 1.3519086 3.0597711
-0.53177112 1.3519087 3.0589254
-0.50343293 1.3519083 3.0561867
-0.47333235 1.3519086 3.0553405
-0.44171104 1.3519086 3.0537581
-0.41157913 1.3519088 3.0529108
-0.38330352 1.3519083 3.050175
-0.35317168 1.3519086 3.0493276
-0.32155049 1.3519086 3.0477452
-0.29138723 1.3519087 3.046896
-0.26317424 1.3519083 3.0441632
-0.23301101 1.3519086 3.0433145
-0.20138983 1.3519086 3.0417321
-0.17293069 1.3519084 3.0403078
-0.14447165 1.3519086 3.0388837
-0.11285038 1.3519086 3.0373013
-0.08122915 1.3519086 3.0357192
-0.052770093 1.3519086 3.0342951
-0.024310961 1.3519086 3.0328708
0.0073103011 1.3519086 3.0312886
0.035769366 1.3519084 3.0298641
0.064228468 1.3519086 3.0284402
0.095849685 1.3519086 3.0268576
0.12747094 1.3519086 3.0252755
0.15593001 1.3519084 3.0238509
0.18438911 1.3519086 3.0224271
0.21601033 1.3519086 3.0208445
0.24763319 1.3519152 3.0192747
0.276095 1.3519251 3.0178692
0.30455446 1.3519253 3.0164452
0.3361761 1.3519253 3.0148628
0.3662743 1.3519268 3.0126994
0.39461833 1.3519236 3.0125947
0.42471662 1.3519253 3.010432
0.45633826 1.3519253 3.0088496
0.48640528 1.3519268 3.0066879
0.51481164 1.3519236 3.0065801
0.54487872 1.3519253 3.0044191
0.5765003 1.3519253 3.0028367
0.60653627 1.3519268 3.0006764
0.63500476 1.3519236 3.0005658
0.66504085 1.3519253 2.9984059
0.69505376 1.3519268 2.9962468
0.72511446 1.3519253 2.9953995
0.75519812 1.3519236 2.9945507
0.78520298 1.3519253 2.9923928
0.81518483 1.3519268 2.9902353
0.84527659 1.3519253 2.9893863
0.87539124 1.3519236 2.9885361
0.90536511 1.3519253 2.9863796
0.93531573 1.3519268 2.9842236
0.96543872 1.3519253 2.9833736
0.99558461 1.3519236 2.9825215
1.0238334 1.3519268 2.979794
1.0539793 1.3519253 2.9789429
1.0856011 1.3519253 2.9773605
1.1157779 1.3519236 2.9765069
1.1439644 1.3519268 2.9737825
1.1741415 1.3519253 2.9729297
1.205763 1.3519253 2.9713471
1.2359711 1.3519236 2.9704919
1.2640955 1.3519268 2.9677708
1.2943035 1.3519253 2.9669163
1.3259251 1.3519253 2.9653342
1.3543845 1.3519251 2.9639099
1.3828441 1.3519253 2.9624858
1.4144658 1.3519253 2.9609034
1.4460872 1.3519253 2.9593208
1.4745468 1.3519251 2.9578965
1.5030062 1.3519253 2.9564726
1.5346278 1.3519253 2.95489
1.5662496 1.3519253 2.9533079
1.5947089 1.3519251 2.9518833
1.6231682 1.3519253 2.9504595
1.65479 1.3519253 2.9488771
1.684898 1.3519268 2.9467132
1.7132224 1.3519236 2.94661
1.7433302 1.3519253 2.9444463
1.7749523 1.3519253 2.9428642
1.8050289 1.3519268 2.940702
1.8334157 1.3519236 2.9405949
1.8634925 1.3519253 2.9384334
1.8951139 1.3519253 2.9368508
1.9251601 1.3519268 2.9346902
1.9536089 1.3519236 2.9345803
1.9836546 1.3519253 2.9324203
2.0136776 1.3519268 2.9302607
2.0437286 1.3519253 2.929414
2.0667853 1.3519176 2.9312158
-1.2211283 -1.5373592 3.1293569
-1.2222023 -1.5153105 3.1260037
-1.2220124 -1.4854194 3.1265969
-1.2218233 -1.4555068 3.1271868
-1.2222024 -1.4255002 3.126004
-1.2220124 -1.395588 3.1265969
-1.2218233 -1.3656543 3.1271868
-1.2222024 -1.3356898 3.126004
-1.2220126 -1.3057564 3.1265969
-1.2218236 -1.2758019 3.1271873
-1.2222023 -1.2458797 3.1260037
-1.2220124 -1.2159251 3.1265969
-1.2222023 -1.1844805 3.1260037
-1.2220132 -1.1549679 3.1265945
-1.2220128 -1.1250243 3.126596
-1.2220124 -1.0940112 3.1265969
-1.2220132 -1.0651366 3.1265945
-1.2220128 -1.0351928 3.126596
-1.2220124 -1.0041796 3.1265969
-1.2220132 -0.9753052 3.1265945
-1.2220128 -0.94536138 3.126596
-1.2220125 -0.91434819 3.1265974
-1.2220132 -0.88547397 3.1265945
-1.222013 -0.85553002 3.126596
-1.2220124 -0.82451671 3.1265972
-1.2222023 -0.79454356 3.1260037
-1.2218233 -0.76465881 3.1271868
-1.2220124 -0.73468524 3.1265969
-1.2222023 -0.70473319 3.1260037
-1.2218236 -0.67480648 3.1271873
-1.2220124 -0.64485389 3.1265969
-1.2222023 -0.61492282 3.1260037
-1.2218233 -0.58495408 3.1271868
-1.2220124 -0.55502248 3.1265969
-1.2222024 -0.52511239 3.1260037
-1.2218236 -0.49510175 3.127187
-1.2220124 -0.46519104 3.1265969
-1.2222023 -0.43530211 3.1260037
-1.2220128 -0.40424126 3.126596
-1.2218083 -0.37422353 3.1272335
-1.2222023 -0.34549177 3.1260037
-1.2220128 -0.31440988 3.126596
-1.2218083 -0.28436953 3.1272335
-1.2222023 -0.25568137 3.1260037
-1.2220128 -0.22457847 3.126596
-1.2218086 -0.19451545 3.127234
-1.2222024 -0.16587099 3.1260037
-1.222013 -0.13474709 3.1265962
-1.2218083 -0.10466142 3.1272335
-1.2222024 -0.076060653 3.1260037
-1.2220128 -0.044915695 3.126596
-1.2220128 -0.01604132 3.126596
-1.222013 0.012833054 3.1265962
-1.2220128 0.044915695 3.126596
-1.2222023 0.076060653 3.1260037
-1.2218083 0.10466141 3.127234
-1.222013 0.13474709 3.126596
-1.2222023 0.16587102 3.1260037
-1.2218086 0.19451545 3.1272335
-1.222013 0.22457848 3.1265962
-1.2222023 0.25568137 3.1260037
-1.2218083 0.28436953 3.1272335
-1.2220128 0.31440988 3.126596
-1.2222023 0.34549177 3.1260037
-1.2218083 0.37422353 3.1272335
-1.222013 0.40424129 3.126596
-1.2222023 0.43530211 3.1260037
-1.2220124 0.46519101 3.1265969
-1.2218233 0.49510175 3.1271868
-1.2222024 0.52511239 3.1260037
-1.2220124 0.55502248 3.1265969
-1.2218233 0.58495414 3.1271868
-1.2222023 0.6149227 3.1260037
-1.2220124 0.64485395 3.1265969
-1.2218233 0.67480648 3.1271868
-1.2222023 0.70473313 3.1260037
-1.2220124 0.73468524 3.1265969
-1.2218233 0.76465881 3.1271868
-1.2222023 0.79454356 3.1260037
-1.2220124 0.82451683 3.1265969
-1.2220128 0.85553014 3.126596
-1.2220132 0.88547385 3.1265945
-1.2220126 0.91434824 3.1265969
-1.2220129 0.94536144 3.1265962
-1.2220134 0.9753052 3.1265945
-1.2220124 1.0041796 3.1265969
-1.222013 1.035193 3.126596
-1.2220132 1.0651366 3.1265945
-1.2220125 1.0940112 3.1265974
-1.222013 1.1250243 3.126596
-1.2220134 1.1549679 3.1265945
-1.2220128 1.184912 3.126596
-1.2220124 1.2159252 3.1265969
-1.2222023 1.2458794 3.1260037
-1.2218233 1.2758019 3.1271873
-1.2220124 1.3057568 3.1265969
-1.2222023 1.3356899 3.1260037
-1.2139461 1.3519064 3.1224706
-1.1893491 1.3519078 3.1203723
-1.160691 1.351905 3.1207399
-1.1307563 1.3519064 3.1183078
-1.0997903 1.3519076 3.1158905
-1.0710692 1.351905 3.1162548
-1.041167 1.3519064 3.1138244
-1.0102314 1.3519076 3.1114087
-0.98038745 1.3519102 3.1107936
-0.95051539 1.3519179 3.1101775
-0.92067838 1.3519174 3.106946
-0.89080203 1.3519176 3.1063244
-0.86089516 1.3519179 3.1056929
-0.83111888 1.3519174 3.1024644
-0.80121207 1.3519176 3.1018412
-0.77127481 1.3519179 3.101208
-0.74155927 1.3519174 3.0979829
-0.71162212 1.3519176 3.097358
-0.68069208 1.3519176 3.0958076
-0.65082908 1.3519176 3.09431
-0.62203199 1.3519176 3.0928745
-0.59110224 1.3519176 3.0913243
-0.56123924 1.3519176 3.0898268
-0.53137565 1.3519176 3.0883355
-0.50044549 1.3519176 3.0867901
-0.47060591 1.3519174 3.0844238
-0.44069594 1.3519179 3.0846653
-0.41085535 1.3519176 3.0823073
-0.38104653 1.3519174 3.0799415
-0.35107577 1.3519179 3.0801804
-0.32126543 1.3519176 3.0778239
-0.29148689 1.3519174 3.0754607
-0.26145542 1.3519179 3.0756958
-0.23167542 1.3519176 3.0733407
-0.20192733 1.3519174 3.0709786
-0.17089286 1.3519176 3.0702958
-0.1408841 1.3519179 3.069732
-0.11236782 1.3519174 3.0664968
-0.081302926 1.3519176 3.0658131
-0.05126147 1.3519179 3.0652473
-0.022808269 1.3519174 3.0620155
0.0082870275 1.3519176 3.0613298
0.037083797 1.3519176 3.0598886
0.065880589 1.3519176 3.0584478
0.097876988 1.3519176 3.0568464
0.12888536 1.3519174 3.0544243
0.15751907 1.3519179 3.0547996
0.18746695 1.3519176 3.0523634
0.21844494 1.3519174 3.0499427
0.24714169 1.3519179 3.0503144
0.2770569 1.3519176 3.0478799
0.3080045 1.3519174 3.0454609
0.33783966 1.3519176 3.0448411
0.36770612 1.3519179 3.0442114
0.39756405 1.3519174 3.0409791
0.42742971 1.3519176 3.0403581
0.45732632 1.3519179 3.0397267
0.48712358 1.3519174 3.0364976
0.51701969 1.3519176 3.0358746
0.54694647 1.3519179 3.0352421
0.57668298 1.3519174 3.0320153
0.60660982 1.3519176 3.0313916
0.63753974 1.3519176 3.0298409
0.66740286 1.3519176 3.0283437
0.69726616 1.3519176 3.0268517
0.7281962 1.3519176 3.0253072
0.7569927 1.3519176 3.02386
0.78685611 1.3519176 3.0223691
0.81778634 1.3519176 3.020824
0.84763634 1.3519174 3.0184569
0.87752533 1.3519179 3.0186992
0.90737641 1.3519176 3.0163407
0.9371959 1.3519174 3.0139751
0.96714556 1.3519179 3.0142145
0.9969666 1.3519176 3.011857
1.0267555 1.3519174 3.0094934
1.0567659 1.3519179 3.0097296
1.0865564 1.3519176 3.007374
1.1163149 1.3519174 3.0050118
1.1473389 1.3519176 3.0043297
1.1773363 1.3519179 3.0037661
1.2058746 1.3519174 3.0005293
1.2369289 1.3519176 2.9998467
1.266959 1.3519179 2.9992812
1.2954342 1.3519174 2.9960482
1.326519 1.3519176 2.995363
1.3576337 1.3519179 2.994674
1.3860458 1.3519173 2.9914494
1.4161087 1.3519176 2.9908803
1.4481051 1.3519176 2.9892786
1.4769018 1.3519176 2.9878376
1.5056988 1.3519176 2.9863968
1.5376951 1.3519176 2.9847953
1.566492 1.3519176 2.9833546
1.5952888 1.3519176 2.9819138
1.6262467 1.3519174 2.9794936
1.6560715 1.3519176 2.9788742
1.6859273 1.3519179 2.9782453
1.7158066 1.3519174 2.9750121
1.7456616 1.3519176 2.9743915
1.7755474 1.3519179 2.9737608
1.805366 1.3519174 2.9705303
1.8352513 1.3519176 2.9699082
1.8651679 1.3519179 2.969276
1.8949256 1.3519174 2.966049
