# .PCD v0.7 - Point Cloud Data file format
VERSION 0.7
FIELDS x y z
SIZE 4 4 4
TYPE F F F
COUNT 1 1 1
WIDTH 1554
HEIGHT 1
VIEWPOINT 0 0 0 1 0 0 0
POINTS 1554
DATA ascii
-1.135805 0.19137195 2.835
-1.3520304 0.2137401 2.835
-1.3371183 0.22661877 2.8349996
-1.1730852 0.2137401 2.835
-1.1656291 0.2137401 2.835
-1.3520304 0.25102034 2.835
-1.3389257 0.25508726 2.8349996
-1.1656291 0.25599104 2.835
-1.3321476 0.2887525 2.8349998
-1.1855119 0.29078597 2.835
-1.1656291 0.2932713 2.835
-1.3520304 0.3280662 2.835
-1.3348589 0.31722099 2.8349996
-1.1656291 0.3081834 2.835
-1.3581482 0.34871376 2.8349998
-1.3408463 0.33842188 2.8349998
-1.3617235 0.37677908 2.8349996
-1.3445743 0.38771459 2.835
-1.3629341 0.40406987 2.8349993
-1.3396034 0.40511215 2.8349996
-1.3570011 0.43543333 2.8349998
-1.3396037 0.42499483 2.835
1.1515455 0.4457061 2.835
-1.3553443 0.46476042 2.8349998
-1.3445742 0.47470185 2.835
-1.1780559 0.47470182 2.835
0.65016758 0.47519895 2.835
0.66110307 0.47718719 2.835
0.73814893 0.47718719 2.835
0.76193732 0.47363672 2.8350003
0.78537071 0.47718722 2.835
0.85496038 0.47718722 2.835
0.88312769 0.47718722 2.835
0.94642127 0.47221652 2.835
0.98419863 0.46724579 2.835
1.0115374 0.46600312 2.835
1.0239642 0.45730439 2.835
1.0637298 0.46476042 2.835
1.1233783 0.45896131 2.835
1.157759 0.4593755 2.8349998
1.1768131 0.45854706 2.835
-1.3567086 0.49531561 2.8349996
-1.3470597 0.49955532 2.835
0.1982757 0.49817458 2.835
0.22616687 0.49458462 2.8349998
0.25457084 0.49351948 2.8349998
0.28468555 0.49797377 2.8349998
0.3174147 0.49849024 2.8350003
0.34422097 0.48588595 2.835
0.3777732 0.48899269 2.835
0.40594047 0.49541309 2.835
0.43493626 0.49955532 2.835
0.46227509 0.49955535 2.835
0.49571437 0.49616623 2.8349998
0.52730846 0.49582732 2.8349998
0.55174768 0.49209934 2.835
0.58654261 0.49209931 2.835
0.6150111 0.49345499 2.8349998
0.64370561 0.48414618 2.8349998
0.67042315 0.48774993 2.835
0.69589806 0.48464328 2.835
0.80127686 0.48414621 2.835
0.82087559 0.48286805 2.8350003
0.84501898 0.48215789 2.835
0.91460884 0.48215789 2.835
1.265043 0.48215789 2.835
-1.3567086 0.52367795 2.8349996
-1.3449293 0.52902448 2.8350003
-1.3572773 0.55533767 2.8349996
-1.3383608 0.55299032 2.8349996
-1.3572772 0.58295268 2.8349996
-1.3427989 0.58121681 2.8349998
-1.356007 0.61338443 2.8349998
-1.3448505 0.6174714 2.835
-1.355854 0.64236736 2.8349998
-1.3420888 0.64370561 2.8349996
-1.35429 0.67465955 2.8349998
-1.3420888 0.67352992 2.8349996
-1.3567088 0.70408493 2.8349996
-1.3400555 0.70448369 2.8349996
0.70335406 0.71578074 2.835
-1.3570011 0.7331782 2.8349996
-1.3396037 0.73317832 2.8349996
0.6859566 0.7431196 2.835
0.70276219 0.73116624 2.8349996
0.77294385 0.74560499 2.835
-1.3560071 0.76449364 2.8349998
-1.3381124 0.7642948 2.8349993
0.77542919 0.75057566 2.835
-1.355854 0.79034138 2.8349998
-1.3374733 0.79140651 2.8349996
0.69660819 0.79531205 2.8350003
-1.3550894 0.82360673 2.8349998
-1.3420888 0.82265091 2.8349996
0.70015866 0.81945539 2.8350003
-1.3526518 0.85309637 2.835
-1.3433315 0.85309643 2.8349996
0.68595666 0.85993111 2.835
0.69216996 0.85868841 2.835
-1.35429 0.88839966 2.8349998
-1.3463495 0.88904524 2.8350003
0.6859566 0.89969665 2.835
0.69092733 0.89969665 2.835
-1.3563383 0.91924816 2.8349998
-1.3450712 0.91609997 2.8349998
0.6859566 0.92206478 2.835
0.69092739 0.92455018 2.835
-1.362188 0.94443297 2.8349996
-1.3402815 0.95166302 2.8349998
-1.3532733 0.97922784 2.835
-1.3408462 0.97549993 2.8349996
0.6859566 0.97425723 2.835
0.69092733 0.98171324 2.835
-1.3830973 1.0152655 2.835
-1.3647555 1.0064675 2.8349993
-1.3445742 1.0040814 2.8349998
0.68595666 0.99911064 2.835
0.69556665 1.009715 2.8349998
-1.3862041 1.0332842 2.835
-1.3667357 1.0370121 2.8349996
0.69738925 1.0294322 2.8349998
-1.4116788 1.058759 2.835
-1.3965051 1.0671309 2.8349996
-1.3634784 1.0671943 2.8349993
-1.3470597 1.066215 2.835
0.69527668 1.0680791 2.835
-1.3906491 1.0912597 2.8349998
-1.3679783 1.0933467 2.8349996
0.70993286 1.0967703 2.8349996
0.72075146 1.0960393 2.835
0.76368028 1.0980728 2.8349998
-1.3843402 1.1233782 2.8349998
-1.3683232 1.1261396 2.8349996
0.71081007 1.1159222 2.835
0.76051706 1.1159222 2.835
-1.0862693 -1.1198549 2.8589997
-1.0739882 -1.1241158 2.8589997
-1.0949792 -1.0962323 2.859
-1.0956882 -1.0648198 2.8590002
-1.0904886 -1.0340948 2.8590002
-1.0777477 -1.02762 2.859
-1.0952924 -1.0039232 2.8590004
-1.0777477 -1.002556 2.859
-1.0966851 -0.97749203 2.8590002
-1.1128372 -0.93738985 2.859
-1.1034381 -0.9424026 2.8589997
-1.0963668 -0.91375798 2.8590002
-1.0974275 -0.88429165 2.8590004
-1.0981445 -0.85441965 2.8590004
-1.1128372 -0.81207031 2.859
-1.0957936 -0.82560474 2.8590002
-1.1128372 -0.78199363 2.859
-1.0994699 -0.79452556 2.8590002
-1.1178498 -0.75943613 2.8589997
-1.1044825 -0.76444888 2.8589997
-1.1145082 -0.7452333 2.859
-1.0972975 -0.73236722 2.8590002
-1.0899215 -0.70393753 2.8590002
-1.0948367 -0.67307961 2.8590004
-1.1128372 -0.64664859 2.859
-1.0977988 -0.64405572 2.8590004
-1.1128372 -0.62659746 2.859
-1.0959941 -0.61536872 2.8590002
-1.0964493 -0.58263922 2.8590004
-1.1128372 -0.56143135 2.859
-1.1015584 -0.55673182 2.859
-1.0935379 -0.52107847 2.8590002
-1.0924003 -0.49356601 2.8589997
-1.1128372 -0.45115018 2.859
-1.1011407 -0.46256822 2.8590002
-1.3133483 -0.42608628 2.859
-1.1151156 -0.43246618 2.8589997
-1.1005559 -0.43485862 2.8590002
-1.1128373 -0.40352878 2.859
-1.1049004 -0.40144014 2.8589997
-1.3434249 -0.36092013 2.859
-1.1003054 -0.37345207 2.8590002
-1.3342712 -0.34283057 2.8590002
-1.318361 -0.33585626 2.859
-1.0977989 -0.34337544 2.8590002
-1.3353275 -0.31291315 2.8590004
-1.3154967 -0.31938568 2.859
-1.0988015 -0.31346586 2.859
-1.3534505 -0.29575399 2.859
-1.3337338 -0.28422463 2.8590004
-1.3083357 -0.28121695 2.8589997
-1.2722434 -0.2807157 2.859
-1.0986342 -0.28739938 2.859
-1.3333994 -0.26567733 2.859
-1.3120952 -0.25815818 2.859
-1.2707397 -0.26317096 2.859
-1.1128372 -0.24562621 2.859
-1.1050395 -0.24952504 2.8589997
-1.3347666 -0.22306868 2.8590004
-1.3129904 -0.21913007 2.859
-1.1128372 -0.23309426 2.859
-1.1028117 -0.22306868 2.859
-1.335502 -0.19307283 2.8590004
-1.3111691 -0.19244717 2.8590002
-1.1729904 -0.18547286 2.859
-1.0986835 -0.19372922 2.859
-1.3327159 -0.15995325 2.8590004
-1.3065662 -0.16350511 2.8590004
-1.1148423 -0.16091023 2.8589997
-1.1031066 -0.16217817 2.859
-1.3534505 -0.13283867 2.859
-1.3346097 -0.13309792 2.8590004
-1.3147806 -0.13427089 2.859
-1.1145082 -0.13952237 2.859
-1.099804 -0.13584633 2.8590002
-1.3273841 -0.10526837 2.859
-1.3030279 -0.10172994 2.859
-1.2822691 -0.094240248 2.859
-1.095145 -0.10084533 2.859
-1.3333994 -0.076305643 2.8589997
-1.3024871 -0.074077748 2.8590002
-1.2823603 -0.074280284 2.8589997
-1.1729904 -0.065166138 2.859
-1.1679777 -0.065166138 2.859
-1.1128372 -0.072685309 2.859
-1.1006322 -0.073230177 2.8590002
-1.3233739 -0.037595846 2.859
-1.3052392 -0.041871458 2.8590004
-1.2758287 -0.041469354 2.8590004
-1.2541975 -0.033084348 2.859
-1.1128372 -0.052634187 2.859
-1.0975901 -0.041564297 2.8590002
-1.3298609 -0.013563993 2.859
-1.305829 -0.015038341 2.8590004
-1.2757524 -0.015038341 2.8590004
-1.2519417 -0.013158548 2.859
-1.0952924 -0.015038341 2.8590004
-1.0777477 -0.01002556 2.859
-1.3277183 0.010359745 2.859
-1.3058289 0.01253195 2.8590004
-1.2757527 0.01253195 2.8590004
-1.2493391 0.010989556 2.8590004
-1.1559906 0.017871652 2.8590002
-1.1328882 0.019048564 2.8589997
-1.0952924 0.01253195 2.8590004
-1.3322198 0.04010224 2.859
-1.3036011 0.035646431 2.8590002
-1.2747885 0.038752642 2.8590004
-1.2574917 0.040818352 2.859
-1.1569973 0.037237793 2.8590002
-1.1318856 0.031079236 2.859
-1.0977989 0.041697212 2.8590004
-1.3308929 0.065166138 2.8589997
-1.3111205 0.078533545 2.8589997
-1.2676066 0.073938496 2.859
-1.2582078 0.065166138 2.859
-1.1538508 0.077698089 2.8590004
-1.1281888 0.079264574 2.859
-1.0893396 0.072372004 2.859
-1.32776 0.10840137 2.8589997
-1.3090518 0.099897534 2.859
-1.2775755 0.10162272 2.8590004
-1.2471796 0.11328882 2.859
-1.217479 0.11341414 2.8589997
-1.1585306 0.10141239 2.8590004
-1.1379009 0.090230033 2.859
-1.0945551 0.10172994 2.859
-1.3264586 0.13187468 2.8589997
-1.3144225 0.13534506 2.859
-1.2657268 0.12281312 2.859
-1.2481823 0.13052507 2.8590004
-1.2134784 0.13206744 2.8590004
-1.1830162 0.14035785 2.859
-1.1558253 0.13321839 2.8590004
-1.1266223 0.14161104 2.8589997
-1.100701 0.13270673 2.8590002
-1.3312063 0.16040897 2.859
-1.3146014 0.1516366 2.859
-1.2495492 0.1661053 2.8590004
-1.2105863 0.1503834 2.859
-1.1930417 0.1503834 2.859
-1.159042 0.15931922 2.8590002
-1.1253692 0.16291539 2.8590004
-1.1012286 0.16542175 2.8590002
-1.3291025 0.19299205 2.859
-1.3140645 0.19907898 2.859
-1.2409416 0.18853626 2.8590002
-1.2140326 0.20019791 2.859
-1.1937578 0.20194343 2.859
-1.1593018 0.19395603 2.8590004
-1.1253692 0.19299202 2.8590004
-1.1003053 0.19299202 2.8590002
-1.3296398 0.22331932 2.8590002
-1.318361 0.21805593 2.859
-1.2369034 0.23058787 2.8589997
-1.2152194 0.22344847 2.8590004
-1.187026 0.22507386 2.8590004
-1.1533951 0.21805595 2.8590004
-1.1253692 0.22306871 2.8590004
-1.1009889 0.22352445 2.8590004
-1.3364072 0.2531454 2.8589997
-1.2426325 0.25225028 2.8590004
-1.216069 0.25267544 2.8590004
-1.1867756 0.2525188 2.8590004
-1.1510113 0.25526616 2.8589997
-1.1253693 0.25314537 2.8590004
-1.0966668 0.25468159 2.8590004
-1.3306144 0.28377905 2.8590002
-1.318361 0.29324761 2.859
-1.1855224 0.2803576 2.8590004
-1.1596231 0.28572842 2.859
-1.1206831 0.28224131 2.8590002
-1.0969346 0.28296277 2.8590004
-1.3297057 0.31263918 2.8590002
-1.3183612 0.31480259 2.859
-1.2206118 0.31831151 2.859
-1.1883867 0.31473094 2.8590004
-1.1564901 0.31768492 2.8590002
-1.1245337 0.31530383 2.8590004
-1.1061535 0.30661505 2.859
-1.3572102 0.35465419 2.859
-1.3339565 0.34114757 2.8590002
-1.3146014 0.34086901 2.8589997
-1.2030672 0.33334985 2.859
-1.1847513 0.33932665 2.8590004
-1.155593 0.33556142 2.859
-1.1250905 0.34031212 2.8590004
-1.1055459 0.3445147 2.8589997
-1.3587418 0.37317356 2.8590002
-1.3467668 0.37679395 2.859
-1.1805096 0.37846488 2.859
-1.0950645 0.37185714 2.8589997
-1.3409185 0.40269333 2.859
-1.1353946 0.40352875 2.859
-1.3570312 0.44112468 2.859
-1.3411971 0.43165603 2.8589997
1.0426582 0.4461374 2.859
1.0652157 0.4461374 2.859
1.1454202 0.4461374 2.859
-1.3566406 0.46117577 2.8589997
-1.3441411 0.45687908 2.859
-1.1940442 0.47320643 2.859
0.64664859 0.47370774 2.859
0.66168696 0.47370768 2.859
0.71181476 0.47621411 2.859
0.73186582 0.47496092 2.8589997
0.76194257 0.47320643 2.859
0.79814595 0.47398621 2.8589997
0.81791866 0.47454318 2.859
0.86470449 0.47621408 2.859
0.88726211 0.47454315 2.8589997
0.90230036 0.47621408 2.859
0.9479723 0.46702397 2.8590002
0.97699082 0.46819362 2.8589997
1.0050625 0.46618852 2.859
1.0301263 0.45699844 2.859
1.0717324 0.46017319 2.859
1.0827603 0.46869493 2.859
1.1341413 0.45616293 2.859
1.1454202 0.45115018 2.859
1.179883 0.45678952 2.8589997
1.2782588 0.47621408 2.859
-1.354883 0.4941169 2.859
-1.3448573 0.49447495 2.859
-1.1950468 0.48523709 2.859
0.20051119 0.49459428 2.859
0.22557509 0.48999923 2.8589997
0.25135514 0.48910409 2.859
0.28572842 0.49292338 2.8589997
0.31033662 0.49763238 2.8589997
0.34588182 0.48423454 2.859
0.37345213 0.48623964 2.859
0.40227559 0.49187902 2.8589997
0.43611184 0.49751839 2.8589997
0.46345425 0.49672094 2.8589997
0.49375886 0.49250561 2.8589997
0.52238441 0.49125239 2.8590002
0.5547477 0.48832831 2.8589997
0.58148253 0.48731378 2.859
0.61585587 0.49053633 2.859
0.63762558 0.48222944 2.859
0.67772782 0.48724219 2.859
0.70429558 0.48289782 2.859
0.72685307 0.48122686 2.859
0.80455112 0.48122686 2.859
0.82460231 0.48122689 2.859
0.8471598 0.48122686 2.859
0.91483229 0.48122686 2.859
0.93488348 0.48122686 2.859
1.2757524 0.48122686 2.859
-1.3541669 0.52347749 2.859
-1.3444277 0.52533937 2.859
-1.3345133 0.55391222 2.8590002
-1.3534505 0.59652084 2.859
-1.3399787 0.58336228 2.859
-1.3534507 0.61155915 2.859
-1.3465581 0.61093259 2.8589997
-1.3394864 0.64664859 2.859
-1.3394866 0.67600924 2.859
-1.3350705 0.70298272 2.8590002
-1.3359059 0.73086327 2.8589997
0.69427001 0.7343722 2.8589997
-1.3384122 0.76745659 2.8589997
-1.329222 0.797032 2.8590002
-1.3164814 0.79891175 2.8589997
0.69427001 0.80204475 2.859
-1.3357863 0.82328945 2.8590002
-1.3166902 0.81374133 2.859
0.70078659 0.81808567 2.859
-1.3394148 0.85492957 2.8590002
-1.3534507 0.88726205 2.859
-1.3461593 0.88361633 2.8589997
-1.3534505 0.91232592 2.859
-1.3464327 0.91382974 2.8589997
-1.355599 0.94741547 2.859
-1.3444276 0.94490904 2.8589997
-1.3534505 0.9649601 2.859
-1.3351899 0.97462761 2.859
-1.363476 1.0150878 2.859
-1.3434252 1.0052553 2.8589997
-1.361881 1.0358229 2.8590004
-1.3423697 1.0336879 2.8590002
0.69677639 1.0426582 2.859
-1.356185 1.0622536 2.8589997
-1.3459314 1.0652158 2.8589997
0.69176364 1.0752413 2.859
-1.3591794 1.0906377 2.859
-1.3459314 1.0877732 2.859
0.70290315 1.0977989 2.8589997
0.77698088 1.1028116 2.859
-1.3835273 1.1228627 2.859
-1.3688747 1.1247905 2.8589997
-1.3346525 1.1303818 2.8589997
0.70429558 1.1203563 2.8589997
0.77698088 1.1228627 2.859
-1.3584633 1.1429138 2.859
-1.3459313 1.1429138 2.859
-1.0661013 -1.1448021 2.8955002
-1.0842674 -1.1145966 2.8829999
-1.0719403 -1.1250378 2.8946073
-1.0910721 -1.0955436 2.8830001
-1.0677683 -1.0933032 2.8913333
-1.0859302 -1.0643867 2.8902917
-1.0687608 -1.0694892 2.8889523
-1.0864552 -1.0306618 2.8937142
-1.0766852 -1.0362463 2.8830001
-1.0873078 -1.0070114 2.8934169
-1.0761932 -0.99928498 2.8972857
-1.0910037 -0.97352612 2.8935263
-1.0762547 -0.97575206 2.8954999
-1.1120691 -0.94525874 2.8829999
-1.0936085 -0.94599402 2.8961253
-1.0926659 -0.91860813 2.8986251
-1.0897979 -0.88740349 2.8895786
-1.0872875 -0.85408241 2.8913333
-1.09541 -0.82618999 2.896889
-1.1120691 -0.78350323 2.8829999
-1.0968981 -0.79271537 2.896889
-1.1120691 -0.76833868 2.8829999
-1.0966432 -0.76413906 2.8920906
-1.0906833 -0.73852623 2.8927824
-1.0766851 -0.72537231 2.8829999
-1.0852154 -0.70505828 2.8929999
-1.0766851 -0.70515293 2.8829999
-1.0860977 -0.67477769 2.8937137
-1.0766852 -0.68240607 2.8830001
-1.0900927 -0.64748722 2.8964615
-1.0881242 -0.6118111 2.9017503
-1.0877864 -0.58381951 2.8946671
-1.0941958 -0.553527 2.8947189
-1.0865221 -0.52485818 2.8916955
-1.0758243 -0.52771473 2.908
-1.0942864 -0.49300367 2.8918235
-1.0925667 -0.46488923 2.8955009
-1.1120691 -0.4246082 2.8829999
-1.0891737 -0.43627802 2.8917501
-1.0732749 -0.43083954 2.908
-1.1120691 -0.41955334 2.8829999
-1.0939025 -0.40703467 2.8907385
-1.0923502 -0.37626743 2.8926158
-1.0953746 -0.34586155 2.8949049
-1.0994751 -0.31396005 2.8989093
-1.1115152 -0.27278009 2.908
-1.0972872 -0.28113219 2.899667
-1.112365 -0.25578445 2.908
-1.1041162 -0.25783819 2.8975837
-1.3402601 -0.21880321 2.8829999
-1.1115153 -0.2345399 2.908
-1.1019113 -0.2214748 2.8990717
-1.3445928 -0.20219439 2.8830001
-1.0941032 -0.19428909 2.8926148
-1.0962369 -0.16571476 2.8958788
-1.3547024 -0.14153609 2.8830001
-1.3395379 -0.14153607 2.8829999
-1.0961921 -0.13226528 2.8895788
-1.0945309 -0.10507613 2.8954999
-1.0963545 -0.072893344 2.8935263
-1.0922135 -0.043630231 2.8899443
-1.0848505 -0.014520731 2.8990717
-1.0853353 0.012832235 2.8918233
-1.332461 0.048526652 2.8829999
-1.3081254 0.051992841 2.8829999
-1.2839345 0.053076025 2.8829999
-1.0884738 0.043515433 2.8907588
-1.3274062 0.063691229 2.8829999
-1.3054174 0.072031751 2.8830006
-1.2877256 0.070768028 2.8829997
-1.0849283 0.072567217 2.8942502
-1.3243731 0.11373434 2.8829999
-1.3071867 0.10766848 2.8829997
-1.2864618 0.11626177 2.8829999
-1.0919076 0.10400974 2.8937142
-1.3243731 0.12131664 2.8829999
-1.3055325 0.13326448 2.8830009
-1.2824178 0.13597573 2.8829997
-1.1777823 0.14153607 2.8829999
-1.0913874 0.13525185 2.8983846
-1.0758243 0.14531276 2.908
-1.3272781 0.16980293 2.8944585
-1.3060455 0.16354786 2.8999348
-1.2778685 0.16276649 2.8829999
-1.1120691 0.15670066 2.8829999
-1.0931245 0.16338456 2.8968892
-1.0758243 0.15296081 2.908
-1.3272282 0.1884671 2.8954999
-1.3066946 0.19638723 2.8946667
-1.2750041 0.1964656 2.8830006
-1.249112 0.204441 2.8829997
-1.0943489 0.19401249 2.8930001
-1.3281111 0.23203012 2.8990719
-1.3074178 0.22332697 2.888001
-1.2772691 0.22510931 2.8850837
-1.2513585 0.22044806 2.8829997
-1.2131662 0.23252355 2.8829999
-1.1752548 0.23252356 2.8829999
-1.1632495 0.2331554 2.8829997
-1.0961612 0.22511517 2.8917501
-1.3511537 0.25238532 2.908
-1.3349696 0.25553113 2.901334
-1.3064994 0.25631639 2.9053688
-1.2764533 0.25395611 2.8829999
-1.2460229 0.26790756 2.8829999
-1.2182212 0.25611287 2.8830001
-1.1752548 0.25274301 2.8829997
-1.1636287 0.25476494 2.8829999
-1.0912017 0.25412452 2.8955002
-1.3316972 0.28278691 2.9017503
-1.304914 0.2828896 2.9079998
-1.277234 0.28577942 2.9017503
-1.2451339 0.28536057 2.8875458
-1.2200594 0.28559959 2.8829997
-1.1747494 0.28357762 2.8829997
-1.1557246 0.28674838 2.8830009
-1.1322886 0.28307214 2.8829999
-1.0875156 0.28301492 2.8959627
-1.3253273 0.30997738 2.8954999
-1.3073863 0.31542808 2.8975348
-1.2802441 0.31463167 2.9051425
-1.2438699 0.31602231 2.8830001
-1.2200594 0.31546921 2.8829997
-1.1727275 0.305819 2.8829999
-1.1564798 0.30690223 2.8829999
-1.117124 0.31845614 2.8829997
-1.0985796 0.31568769 2.8965137
-1.3547024 0.35889506 2.8829999
-1.335494 0.35316625 2.8829999
-1.3074211 0.34674308 2.8927562
-1.2811501 0.34491661 2.9006467
-1.2468218 0.34652478 2.8852065
-1.2189989 0.34859097 2.8830001
-1.1836798 0.35552514 2.8829999
-1.158237 0.3538402 2.8829999
-1.130393 0.35194463 2.8829997
-1.0929158 0.34512061 2.8921828
-1.0766851 0.35889506 2.8829999
-1.3563874 0.37321711 2.8829999
-1.3370526 0.37729144 2.8862906
-1.3080497 0.37444717 2.8934841
-1.2787495 0.37635309 2.9006472
-1.2480359 0.37366706 2.8939998
-1.2156936 0.37658706 2.8830009
-1.1866512 0.37591887 2.8941119
-1.1535128 0.37781429 2.8846674
-1.1262859 0.37642914 2.8830006
-1.098372 0.36795422 2.8913331
-1.3340685 0.40540725 2.8970623
-1.3052658 0.40534604 2.9079998
-1.2773854 0.40432411 2.9057271
-1.2466967 0.408216 2.8986976
-1.2167532 0.40575886 2.8960953
-1.1895173 0.406221 2.8930006
-1.1571584 0.40358007 2.8829999
-1.1356585 0.39596403 2.8830001
-1.353593 0.44713327 2.898
-1.3353041 0.43497813 2.9011815
-1.3052655 0.43593824 2.9079998
-1.2802923 0.43681681 2.9050002
-1.2449759 0.43405575 2.8927219
-1.2177694 0.43711886 2.8959026
-1.190884 0.43398491 2.8967102
-1.1659012 0.42489108 2.908
0.96042335 0.44988251 2.8829999
1.1599526 0.44613564 2.908
1.1777823 0.44988251 2.8829999
-1.3552043 0.46862814 2.8913333
-1.3381419 0.46845618 2.8998914
-1.3059938 0.45524049 2.908
-1.2750813 0.46255344 2.9080002
-1.2470739 0.46463016 2.9046669
-1.2158719 0.46499252 2.8885553
-1.1962426 0.46132183 2.8943634
0.52261603 0.47927716 2.908
0.54556024 0.47927719 2.908
0.58380044 0.47927719 2.908
0.64967179 0.47497216 2.9024441
0.66766262 0.47152814 2.898
0.71189666 0.47605455 2.8972857
0.73599368 0.4737545 2.8930001
0.75779974 0.47476551 2.8929996
0.79870337 0.47069252 2.8892498
0.82249397 0.46791905 2.8919284
0.84383368 0.47672781 2.908
0.88248724 0.47179842 2.8899443
0.91591311 0.46872434 2.8917501
0.94164264 0.46634564 2.8874114
0.97429788 0.4599103 2.8849227
1.0048306 0.46462068 2.8929996
1.031369 0.46211445 2.892375
1.0952187 0.46501493 2.8919284
1.132193 0.46402669 2.8901429
1.1460041 0.45534682 2.9017498
1.1828372 0.4549374 2.8830001
-1.3547024 0.48021168 2.8829999
-1.3346349 0.4943009 2.8952549
-1.3064796 0.5013715 2.9080007
-1.2478479 0.49772844 2.9071932
-1.2174685 0.49264506 2.8856311
0.19556291 0.49911252 2.902643
0.22559147 0.48750433 2.8913331
0.25626624 0.48673785 2.8964615
0.28623375 0.48857233 2.8946667
0.31553838 0.48908243 2.892091
0.34157291 0.48642087 2.8945384
0.37708527 0.4849427 2.892091
0.40679371 0.48693511 2.8929999
0.43410191 0.49408421 2.8943634
0.46725571 0.4951086 2.8913333
0.49845353 0.4886989 2.8964615
0.52107179 0.48316044 2.8829999
0.55559397 0.48350736 2.885083
0.58491957 0.48165596 2.8829999
0.61271489 0.48905197 2.8904998
0.63321626 0.48379111 2.8892498
0.68096185 0.4823781 2.8829999
0.70073688 0.48356786 2.8901429
0.83910668 0.48021168 2.8829999
0.8572256 0.48187733 2.8930001
0.91998452 0.48021168 2.8830001
0.93514907 0.48147541 2.8829999
-1.3511537 0.53536278 2.908
-1.3364005 0.52395105 2.898217
-1.3071774 0.52197874 2.9080005
-1.2772228 0.52873456 2.9080007
-1.2459596 0.529459 2.9080005
-1.2180007 0.5238241 2.9005003
0.18865164 0.51496804 2.908
-1.3307284 0.5519678 2.9001048
-1.3131453 0.55436707 2.9080002
-1.2673897 0.54556024 2.908
-1.2458807 0.55260837 2.9079993
-1.2179067 0.55309063 2.9003084
-1.333691 0.58349055 2.8996665
-1.3134235 0.5822708 2.908
-1.2413001 0.58194637 2.9080007
-1.2187765 0.58427256 2.908
-1.3535928 0.62040269 2.898
-1.342163 0.61092317 2.8996668
-1.2950681 0.62458992 2.908
-1.2848706 0.62458992 2.908
-1.2386826 0.61364275 2.9080005
-1.2214695 0.61383832 2.9080005
-1.3533156 0.63341749 2.9017498
-1.3373609 0.64467496 2.8986249
-1.2950681 0.63733667 2.908
-1.2807918 0.63937622 2.9080007
-1.2510339 0.64475298 2.9080002
-1.2155285 0.64141566 2.908
-1.1956435 0.65518212 2.908
-1.3511537 0.68322486 2.908
-1.3376029 0.67411393 2.8991773
-1.2670252 0.67047811 2.908
-1.2517292 0.67047811 2.908
-1.2032917 0.66792881 2.908
-1.1956435 0.67506689 2.9080002
-1.3377717 0.70386088 2.8991766
-1.2094101 0.71432698 2.9080002
-1.1956434 0.70616901 2.9080005
-1.1251014 0.71277398 2.8986249
-1.3402497 0.73894578 2.8955002
-1.2109399 0.73676127 2.9080005
-1.1956435 0.73676121 2.9080005
-1.1441468 0.74338943 2.908
-1.1252594 0.74130571 2.9080005
-1.1070143 0.7228449 2.8829999
-1.3511537 0.77500135 2.908
-1.3360579 0.7649855 2.9019189
-1.3110927 0.7713595 2.908
-1.236433 0.772452 2.908
-1.2132207 0.76721913 2.9080005
-1.1962808 0.76289189 2.908
-1.1446567 0.7571559 2.908
-1.1235121 0.76480401 2.9080005
-1.1064163 0.772452 2.908
-1.3511537 0.78010005 2.908
-1.3292022 0.78901261 2.9026427
-1.3168808 0.79244316 2.8954999
-1.2138077 0.78870404 2.9080005
-1.1981928 0.78010005 2.908
-1.1166139 0.78859788 2.9080002
-1.1064165 0.78519881 2.908
-1.3279178 0.8283177 2.8970003
-1.3193184 0.81635988 2.8829999
-1.0946435 0.83186382 2.8929996
-1.0766851 0.83405185 2.8829999
-1.3364052 0.85390902 2.9003084
-1.115339 0.8578552 2.9080005
-1.0990001 0.853104 2.9080007
-1.3412811 0.88687968 2.8974736
-1.1920747 0.89074165 2.9080002
-1.1446567 0.87697524 2.908
-1.1244118 0.87667531 2.9080005
-1.1043769 0.87595552 2.908
-1.3536417 0.91996735 2.9024446
-1.3391269 0.91278183 2.9030001
-1.1941139 0.90909714 2.9080002
-1.3540962 0.94441843 2.902643
-1.3416097 0.94789213 2.8988328
-1.1905448 0.95600498 2.908
-1.0885711 0.94835699 2.9080005
-1.3308001 0.97364199 2.8955002
-1.3154629 0.97639978 2.908
-1.3511537 1.0171893 2.908
-1.3341285 1.0057389 2.9000452
-1.1905448 1.0095414 2.908
-1.1140645 1.0018933 2.908
-1.3518635 1.0302047 2.9029999
-1.3371277 1.0343096 2.9013822
-1.2517292 1.0375841 2.908
-1.1905448 1.0273867 2.908
-1.3511537 1.0758243 2.908
-1.340104 1.0618881 2.8958566
-1.2440811 1.05288 2.908
0.69757062 1.0766851 2.8829999
-1.3571768 1.0985347 2.8991766
-1.3360567 1.0931747 2.904794
-1.3154629 1.0860217 2.908
0.69958496 1.1012528 2.8861246
-1.3834455 1.1353091 2.908
-1.3622593 1.1233457 2.8876879
-1.3350432 1.1214975 2.8954999
-1.3081752 1.1285887 2.8999121
-1.2782426 1.1251118 2.9079998
-1.2462907 1.1251116 2.9079998
-1.2191541 1.1282275 2.9080005
-1.1920744 1.1349691 2.908
-1.1348159 1.1373434 2.8829999
-1.0898458 1.1331847 2.9080005
-1.0720003 1.1331846 2.908
0.69957238 1.1245581 2.8913331
0.78687322 1.1272337 2.8830001
-1.3648123 1.1423984 2.8829999
-1.337549 1.1471446 2.8879995
-1.3091546 1.1499995 2.9005001
-1.2899693 1.1446567 2.908
-1.2364331 1.1523046 2.9080002
-1.2164779 1.1519532 2.9079998
-1.1930943 1.1497552 2.9080005
-1.1542166 1.1497554 2.9080005
-1.1266205 1.1498914 2.9058268
-1.0902706 1.1506052 2.9080005
-1.073275 1.1472059 2.908
0.69852096 1.1446567 2.908
-1.0639887 -1.1519259 2.9329996
-1.066318 -1.1256083 2.9329998
-1.063646 -1.0953581 2.9330003
-1.0850731 -1.0619318 2.9330001
-1.0714605 -1.0681331 2.9329998
-1.0850731 -1.0362191 2.9330003
-1.0776449 -1.0399332 2.9330003
-1.0775931 -1.0041953 2.9330006
-1.0850732 -0.96679497 2.9330001
-1.0719312 -0.97736579 2.9329998
-1.088073 -0.94151086 2.9330003
-1.0729179 -0.94365364 2.9329998
-1.0902157 -0.91536969 2.9330001
-1.0747881 -0.92565477 2.9330001
-1.0902157 -0.88708586 2.9329998
-1.0778736 -0.87834358 2.9330003
-1.0892807 -0.85459441 2.9330006
-1.0782164 -0.85965914 2.9330003
-1.0931222 -0.82504028 2.9329996
-1.0799305 -0.81509054 2.9330001
-1.0902156 -0.79452026 2.9329998
-1.0776449 -0.7982344 2.9330003
-1.0897483 -0.76343149 2.9330006
-1.0876445 -0.73538131 2.9330003
-1.0799305 -0.73281002 2.9330001
-1.0858077 -0.70673013 2.9330003
-1.0799305 -0.70709747 2.9330003
-1.0850731 -0.67624229 2.9330003
-1.0789021 -0.66955703 2.9330003
-1.0922155 -0.64110166 2.9329998
-1.0758901 -0.64685643 2.9330001
-1.093776 -0.61789435 2.9330003
-1.0799305 -0.61453199 2.9330003
-1.0878782 -0.58063805 2.9330006
-1.0786449 -0.58239114 2.9330003
-1.0883458 -0.55632794 2.9330006
-1.076845 -0.55333585 2.9330003
-1.0890728 -0.52282357 2.9330003
-1.0771255 -0.53014773 2.9330006
-1.0927869 -0.49625394 2.9329996
-1.0799305 -0.49625385 2.9330003
-1.0876443 -0.46899843 2.9330003
-1.0786449 -0.46282741 2.9330003
-1.0850731 -0.43454349 2.9330001
-1.0739311 -0.43282935 2.9330003
-1.0876445 -0.40368831 2.9330003
-1.075431 -0.40497392 2.9329998
-1.0902157 -0.37540448 2.9330001
-1.0778736 -0.38157547 2.9330003
-1.0920857 -0.34618556 2.9329998
-1.0799305 -0.34454927 2.9330003
-1.0938889 -0.31736737 2.9329996
-1.0799305 -0.3239792 2.9330001
-1.0923332 -0.28828406 2.9329998
-1.0713596 -0.27683935 2.9330003
-1.1125 -0.25112674 2.9330003
-1.0946234 -0.25382042 2.9329996
-1.0694478 -0.25712639 2.9329996
-1.1125 -0.23484206 2.9330001
-1.0941713 -0.22528222 2.9329996
-1.0786449 -0.22627117 2.9330003
-1.0902157 -0.19541603 2.9330001
-1.0799305 -0.19541602 2.9330003
-1.0895728 -0.16648929 2.9329998
-1.0782163 -0.16456087 2.9330003
-1.0956289 -0.13695359 2.9329996
-1.0773593 -0.14913327 2.9330001
-1.0915689 -0.10582779 2.9329996
-1.0780021 -0.10092208 2.9330003
-1.0927869 -0.074566647 2.9329996
-1.0773593 -0.07456664 2.9330003
-1.0916851 -0.04481345 2.9329996
-1.0773593 -0.04371148 2.9330003
-1.0876443 -0.018641658 2.9330003
-1.0766581 -0.014492576 2.9330006
-1.0882379 0.012658529 2.9330003
-1.0765023 0.01114214 2.9330003
-1.0874107 0.042542718 2.9330006
-1.078645 0.034712058 2.9330001
-1.0871302 0.076623641 2.9330003
-1.0799305 0.082280427 2.9330001
-1.0916849 0.10652377 2.9329996
-1.0799305 0.095136747 2.9330001
-1.0850731 0.13113442 2.9330001
-1.0799305 0.14141949 2.9330001
-1.3242006 0.17998843 2.9330001
-1.0873587 0.17084618 2.9330003
-1.0799305 0.1619896 2.9330001
-1.3242006 0.18513097 2.9330001
-1.0942563 0.19615069 2.9330001
-1.0938888 0.22480193 2.9329996
-1.3429341 0.25786102 2.9330003
-1.0905181 0.25198382 2.9329998
-1.3360285 0.28335321 2.9330003
-1.0870016 0.28862429 2.9330003
-1.0773593 0.28798151 2.9330003
-1.0895729 0.31497973 2.9329998
-1.0755228 0.31883666 2.9330001
-1.0861015 0.34043527 2.9330003
-1.0765022 0.33769259 2.9330003
-1.3524845 0.44225729 2.9330001
-1.3456278 0.44140023 2.9330003
-1.1937089 0.44161451 2.9330003
1.1570685 0.44354293 2.9330001
-1.3524845 0.45254236 2.9330001
-1.3338091 0.46472198 2.9329996
-1.3065232 0.47279105 2.9329998
-1.2856317 0.47825497 2.9330001
-1.1964946 0.45425653 2.9330001
0.19541602 0.47825497 2.9330001
0.25712633 0.478255 2.9330003
0.58367682 0.478255 2.9330003
0.60167557 0.47825497 2.9330001
0.65138674 0.47396955 2.9330003
0.67452806 0.47054118 2.9330003
0.71481121 0.4765408 2.9330001
0.73538131 0.47311249 2.9330003
0.76623648 0.47439814 2.9330003
0.79709166 0.47311249 2.9330003
0.8274793 0.46235991 2.9330006
0.85623074 0.47568375 2.9330003
0.87937206 0.47482666 2.9330001
0.91463518 0.46503139 2.9330003
0.94365358 0.46411303 2.9330003
0.96165246 0.46282738 2.9330001
1.0156491 0.46796995 2.9330001
1.039819 0.46282741 2.9330003
1.0593605 0.45768487 2.9330001
1.0979294 0.45382798 2.9330001
1.1231278 0.46796995 2.9330003
1.1493547 0.46539864 2.9330003
-1.3242006 0.48596877 2.9330001
-1.3012431 0.49386624 2.9329996
-1.2807914 0.49701011 2.9329998
0.17998843 0.49625385 2.9330001
0.19427323 0.49053994 2.9329998
0.22253115 0.48573503 2.9330006
0.25455508 0.48339748 2.9330003
0.28335321 0.48545453 2.9330003
0.3162654 0.48339748 2.9330003
0.34601861 0.48413217 2.9330003
0.37026197 0.48339748 2.9330001
0.40368837 0.4842546 2.9330003
0.43608627 0.4900828 2.9330003
0.46422994 0.49602011 2.9330006
0.49000934 0.49074405 2.9330003
0.52710897 0.48339748 2.9330001
0.56310666 0.48339748 2.9330001
0.57082045 0.48339748 2.9330001
0.61710328 0.48956856 2.9330003
0.63510203 0.48854005 2.9330001
0.6890986 0.48339748 2.9330001
0.69938362 0.48339748 2.9330001
0.86394453 0.48339748 2.9330001
0.87422955 0.48339748 2.9330001
-1.3250579 0.52968025 2.9330001
-1.3020878 0.52659476 2.9330001
-1.2770607 0.52025229 2.9330003
-1.2534908 0.52132368 2.9330003
-1.3216294 0.54510784 2.9330001
-1.3036306 0.5553928 2.9329996
-1.2810606 0.56053537 2.9330003
-1.3250577 0.58710515 2.9330003
-1.3036305 0.58367676 2.9329994
-1.2764895 0.58453381 2.9329996
-1.259919 0.59139055 2.9330001
-1.2187788 0.57082045 2.9330001
-1.3524845 0.62738824 2.9330001
-1.3315471 0.61600131 2.9329996
-1.3042734 0.61292493 2.9329994
-1.2753466 0.61453199 2.9329996
-1.2599192 0.61453193 2.9330003
-1.2146649 0.61607468 2.9330001
-1.3524845 0.63253075 2.9330001
-1.3299022 0.64303941 2.9329996
-1.3098316 0.64886588 2.9329998
-1.2769829 0.64515346 2.9329998
-1.2476561 0.64776063 2.9329996
-1.2170056 0.64547586 2.9329994
-1.1937089 0.65374374 2.9330003
-1.3280576 0.67752784 2.9329996
-1.3036305 0.67624235 2.9329994
-1.2773057 0.67685449 2.9329996
-1.244989 0.6766569 2.9329994
-1.22135 0.67787856 2.9329998
-1.1869593 0.67688507 2.9329994
-1.1673535 0.6890986 2.9330001
-1.3328786 0.70709747 2.9329994
-1.3036306 0.70709747 2.9329994
-1.2753466 0.70709753 2.9329996
-1.2470627 0.70709741 2.9329994
-1.2222071 0.70366907 2.9329998
-1.1853522 0.70709747 2.9329994
-1.1591253 0.71018302 2.9329996
-1.3344855 0.73538142 2.9329996
-1.3036306 0.73538136 2.9329996
-1.2739441 0.72977132 2.9330006
-1.2470628 0.73538142 2.9329996
-1.1853524 0.73538142 2.9329996
-1.1566008 0.73397881 2.9329998
-1.1364985 0.73281002 2.9330001
-1.3307717 0.75737989 2.9329998
-1.3032632 0.76329792 2.9329994
-1.2741222 0.76697117 2.9329996
-1.2477056 0.76205808 2.9329994
-1.2213502 0.76966476 2.9330003
-1.1837162 0.75805509 2.9329998
-1.1593827 0.76700783 2.9329996
-1.1268562 0.76430804 2.9330003
-1.3226579 0.80120564 2.9330003
-1.3038644 0.79506576 2.9329994
-1.2744117 0.79335135 2.9329998
-1.2492665 0.79562247 2.9329996
-1.2133507 0.79880583 2.9329998
-1.1747816 0.7982344 2.9330003
-1.1544971 0.79452032 2.9329994
-1.1291521 0.79819357 2.9330001
-1.3242006 0.8253755 2.9330003
-1.3036307 0.82537556 2.9329994
-1.276418 0.82773256 2.9329996
-1.2470627 0.8253755 2.9329994
-1.2162074 0.8253755 2.9329994
-1.1817526 0.82871813 2.9329996
-1.1544971 0.82537562 2.9329994
-1.126568 0.82493228 2.9329994
-1.3289759 0.85880208 2.9329996
-1.3064874 0.85823041 2.9329998
-1.2734183 0.85687351 2.9329996
-1.2470626 0.85623068 2.9329994
-1.2162077 0.8562305 2.9329994
-1.1845487 0.8551057 2.9329994
-1.1544974 0.8562305 2.9329994
-1.1316773 0.85398078 2.9329998
-1.0907869 0.8610875 2.9330003
-1.0778736 0.8474884 2.9330003
-1.3307717 0.88622862 2.9329996
-1.3031769 0.8876909 2.9329994
-1.2772751 0.88515747 2.9329996
-1.2458447 0.88153732 2.9329996
-1.217654 0.88596082 2.9329994
-1.1834669 0.88742882 2.9329996
-1.1570684 0.88837147 2.9329996
-1.1232748 0.8962689 2.9330001
-1.1016027 0.88451457 2.9330001
-1.3280575 0.91472679 2.9329998
-1.3062017 0.91022718 2.9330001
-1.2753466 0.91742676 2.9330003
-1.242206 0.91994095 2.9330003
-1.2213501 0.91536993 2.9329996
-1.1839238 0.91594094 2.9329996
-1.1544974 0.91536981 2.9329996
-1.1264583 0.91267598 2.9329996
-1.3352205 0.94218427 2.9329996
-1.2741125 0.94396198 2.9329996
-1.2475061 0.94143695 2.9329994
-1.2162076 0.94365364 2.9329994
-1.1913519 0.94426602 2.9329996
-1.1493547 0.93079728 2.9330001
-1.1220663 0.94522935 2.9329994
-1.0966438 0.94204664 2.9329998
-1.3271393 0.96973372 2.9330001
-1.3042021 0.97708017 2.9329998
-1.2749919 0.97459745 2.9329994
-1.2472342 0.97690892 2.9329996
-1.2169639 0.97511393 2.9329994
-1.1840667 0.97000909 2.9329998
-1.1541299 0.97579449 2.9329996
-1.1236421 0.97450906 2.9329994
-1.0962523 0.97573847 2.9329996
-1.3242006 1.0053639 2.9330003
-1.3086612 1.0034634 2.9329996
-1.2731427 1.0020579 2.9329996
-1.2470627 1.0053641 2.9329994
-1.2169639 1.0047591 2.9329994
-1.1871115 1.0098296 2.9329996
-1.1537408 1.0059689 2.9329994
-1.123642 1.0047212 2.9329994
-1.0979292 1.0053642 2.9329996
-1.3257434 1.0377619 2.9330001
-1.3096302 1.0310767 2.9330003
-1.2744895 1.0345048 2.9329996
-1.2463065 1.0356143 2.9329994
-1.2162962 1.0363079 2.9329994
-1.1841837 1.0366088 2.9329994
-1.1544974 1.0362192 2.9329994
-1.123642 1.0362192 2.9329994
-1.0974151 1.0367335 2.9329996
-1.3293433 1.0670742 2.9329996
-1.3128871 1.0717026 2.9330003
-1.2713908 1.0633165 2.9330003
-1.2457327 1.0676949 2.9329994
-1.2162077 1.0670743 2.9329994
-1.1838452 1.0659217 2.9329994
-1.1544971 1.0670742 2.9329994
-1.1236421 1.0670742 2.9329994
-1.0982151 1.0625032 2.9329998
-1.3277069 1.0934883 2.9330006
-1.305213 1.0965449 2.9329996
-1.2725416 1.1014357 2.9330006
-1.2470627 1.0960927 2.9329996
-1.2151057 1.0958478 2.9329996
-1.182781 1.094501 2.9329998
-1.154586 1.0950035 2.9329994
-1.1250703 1.094501 2.9329998
-1.1056432 1.0953581 2.9330001
0.70452613 1.1056432 2.9330001
-1.3248435 1.1165711 2.9330003
-1.3055966 1.1159283 2.9329998
-1.2760813 1.115561 2.9330001
-1.2463064 1.115626 2.9329998
-1.2148364 1.1231277 2.9329996
-1.1827812 1.1262134 2.9329996
-1.1538923 1.1234907 2.9329994
-1.1236421 1.123642 2.9329994
-1.0980648 1.125672 2.9329996
-1.073931 1.1304989 2.9330003
0.70041221 1.1210707 2.9330003
-1.2967739 1.1613541 2.9330003
-1.2749181 1.1574969 2.9329996
-1.2537481 1.1565542 2.9330003
-1.2136364 1.1416409 2.9330001
-1.1843635 1.1537061 2.9329996
-1.1544973 1.1442124 2.9330003
-1.1224992 1.1496404 2.9329998
-1.1056432 1.151926 2.9330001
-1.0740535 1.1559665 2.9330001
0.80737668 1.1493547 2.9330001
0.86908698 1.1467836 2.9330001
0.87872922 1.1461406 2.9330003
-1.3010594 1.1724961 2.9330003
-1.2753466 1.1724961 2.9330003
-1.2573478 1.1724961 2.9330001
-1.0554242 -1.1721174 2.9579999
-1.0580174 -1.1519822 2.9579999
-1.0476446 -1.1513718 2.9579999
-1.0606105 -1.1271689 2.9579999
-1.0476446 -1.1358128 2.9579999
-1.0606107 -1.0950629 2.9579999
-1.0689086 -1.0657969 2.9579999
-1.0852457 -1.0320855 2.9579999
-1.0739006 -1.0359753 2.9579999
-1.0677418 -1.0031284 2.9579999
-1.065797 -0.97503579 2.9579999
-1.0476446 -0.97762883 2.9579999
-1.0654728 -0.94748318 2.9579999
-1.0865424 -0.9153924 2.9579999
-1.0735765 -0.9162569 2.9579999
-1.0849864 -0.88686752 2.9579999
-1.0714546 -0.88356721 2.9579999
-1.0880983 -0.84796971 2.9579999
-1.0720947 -0.86389941 2.9579999
-1.085678 -0.82895315 2.9579999
-1.0761697 -0.81944484 2.9579999
-1.0874069 -0.78659791 2.9579999
-1.0780219 -0.79795855 2.9579999
-1.0876536 -0.76646984 2.9579999
-1.0739006 -0.7633673 2.9579999
-1.0839492 -0.73386991 2.9579999
-1.0738814 -0.73432761 2.9579999
-1.0848136 -0.70361614 2.9579999
-1.0711358 -0.70809072 2.9579999
-1.0849864 -0.68356222 2.9579999
-1.0724845 -0.67477262 2.9579999
-1.0839492 -0.63532907 2.9579999
-1.06839 -0.64755404 2.9579999
-1.0839492 -0.61458361 2.9579999
-1.0747732 -0.61199045 2.9579999
-1.0839492 -0.58346546 2.9579999
-1.0716904 -0.58252251 2.9579999
-1.0701188 -0.55580491 2.9579999
-1.0839493 -0.51863599 2.9579999
-1.0735765 -0.52641553 2.9579999
-1.0839492 -0.4952974 2.9579999
-1.0730001 -0.4976024 2.9579999
-1.0839493 -0.47195873 2.9579999
-1.0766884 -0.46521646 2.9579999
-1.0721619 -0.43329677 2.9579999
-1.0709833 -0.40379518 2.9579999
-1.086172 -0.36971337 2.9579999
-1.0735766 -0.38099796 2.9579999
-1.0839492 -0.34489292 2.9579999
-1.0761697 -0.34489295 2.9579999
-1.0883946 -0.31081116 2.9579999
-1.078022 -0.31192249 2.9579999
-1.0852457 -0.29173273 2.9579999
-1.0709833 -0.28784293 2.9579999
-1.0839492 -0.24375892 2.9579999
-1.0646856 -0.2519089 2.9579999
-1.0839492 -0.22042029 2.9579999
-1.0699857 -0.22640456 2.9579999
-1.0839492 -0.1944885 2.9579999
-1.0725392 -0.19552577 2.9579999
-1.0839492 -0.17374304 2.9579999
-1.0725391 -0.16233306 2.9579999
-1.0897838 -0.13484533 2.9579999
-1.0723562 -0.1339301 2.9579999
-1.0870609 -0.11617445 2.9579999
-1.0716904 -0.10726333 2.9579999
-1.0730305 -0.074519791 2.9579999
-1.0699857 -0.043286152 2.9579999
-1.0711359 -0.016779399 2.9579999
-1.0839492 0.012965899 2.9579999
-1.0706127 0.014324231 2.9579999
-1.0858941 0.048622124 2.9579999
-1.0726335 0.036304519 2.9579999
-1.085678 0.072609045 2.9579999
-1.0747288 0.082405485 2.9579999
-1.0860237 0.10839492 2.9579999
-1.0742247 0.10502378 2.9579999
-1.085431 0.13262263 2.9579999
-1.0787628 0.13484536 2.9579999
-1.0846901 0.16522262 2.9579999
-1.0764577 0.15962464 2.9579999
-1.0891355 0.19597031 2.9579999
-1.0787628 0.18411577 2.9579999
-1.0880982 0.22405078 2.9580002
-1.0764576 0.22935234 2.9579999
-1.0865424 0.2567248 2.9579999
-1.0766884 0.25568753 2.9579999
-1.0865424 0.27487707 2.9579999
-1.0748732 0.28481758 2.9579999
-1.0839492 0.31636795 2.9579999
-1.0753052 0.31377479 2.9579999
-1.0683901 0.33192703 2.9579999
1.0891355 0.44602695 2.9579999
1.151372 0.44602698 2.9579999
0.25931796 0.47714511 2.9579999
0.27487707 0.47714508 2.9579999
0.56531322 0.47714508 2.9579999
0.58346552 0.47714514 2.9579999
0.60421091 0.47714508 2.9579999
0.64829499 0.47455189 2.9579999
0.6823768 0.46899509 2.9579999
0.7064563 0.47195879 2.9579999
0.73242933 0.46763679 2.9579999
0.76239485 0.47066212 2.9579999
0.79610628 0.47247735 2.9579999
0.82566851 0.45951149 2.9579999
0.85769421 0.46936554 2.9579999
0.88403863 0.47243023 2.9579999
0.91279936 0.46612406 2.9579999
0.94651067 0.46158606 2.9579999
0.97244245 0.46158603 2.9579999
1.0139333 0.46677238 2.9579999
1.037272 0.46273851 2.9579999
1.0652784 0.45536238 2.9579999
1.0960507 0.45294207 2.9579999
1.128552 0.46729103 2.9579999
1.1478063 0.46093771 2.9579999
0.2074544 0.48233145 2.9579999
0.22560665 0.48233148 2.9579999
0.24375892 0.48233145 2.9579999
0.2852498 0.48233148 2.9579999
0.31377476 0.48233148 2.9579999
0.34229976 0.48233148 2.9579999
0.3863838 0.48751783 2.9579999
0.40453607 0.48336872 2.9579999
0.43357965 0.48544332 2.9579999
0.461586 0.49140757 2.9579999
0.49685326 0.4885551 2.9579999
0.51344961 0.48751783 2.9579999
0.55753368 0.48233145 2.9579999
0.5704996 0.48233145 2.9579999
0.62132591 0.48751783 2.9579999
0.63792229 0.48665345 2.9579999
0.70275176 0.48233145 2.9579999
1.1358128 0.48233145 2.9579999
1.1435924 0.48233145 2.9579999
-1.1876764 0.66385406 2.9579999
-1.1721174 0.69756544 2.9579999
-1.1669309 0.70534492 2.9579999
-1.2924408 0.74061221 2.9579999
-1.2823274 0.74553919 2.9579999
-1.1721174 0.72868353 2.9579999
-1.2928854 0.76017213 2.9579999
-1.2832536 0.75720853 2.9579999
-1.2058287 0.77536082 2.9579999
-1.1941593 0.77665734 2.9579999
-1.2965901 0.79869938 2.9579999
-1.2862172 0.80647898 2.9579999
-1.2058287 0.79610628 2.9579999
-1.1925578 0.793513 2.9579999
-1.2823274 0.82074147 2.9579999
-1.2055405 0.8234787 2.9579999
-1.195744 0.8234787 2.9579999
-1.3225217 0.86352891 2.9579999
-1.3043696 0.85989839 2.9579999
-1.2032355 0.86612207 2.9579999
-1.1954559 0.84278345 2.9579999
-1.085678 0.86439335 2.9579999
-1.0787628 0.86352891 2.9579999
-1.3225217 0.87908798 2.9579999
-1.2706581 0.89724028 2.9579999
-1.2512093 0.89335042 2.9579999
-1.2032355 0.87908798 2.9579999
-1.1980491 0.87908798 2.9579999
-1.0916162 0.8857401 2.9579999
-1.0687741 0.88609928 2.9579999
-1.3225217 0.92576522 2.9579999
-1.3038509 0.9242093 2.9580002
-1.2724887 0.91600281 2.9579999
-1.2525059 0.91539252 2.9579999
-1.1183088 0.92252374 2.9579999
-1.0965447 0.9157629 2.9579999
-1.070119 0.90674853 2.9579999
-1.3281403 0.94953603 2.9579999
-1.3058102 0.94545424 2.9579999
-1.2473195 0.93613791 2.9579999
-1.1820577 0.9495362 2.9579999
-1.1558816 0.94820184 2.9579999
-1.1271689 0.93440908 2.9579999
-1.0937457 0.94449383 2.9579999
-1.3264116 0.97049761 2.9579999
-1.3095559 0.97429484 2.9579999
-1.2662128 0.96762657 2.9579999
-1.2499127 0.96725607 2.9579999
-1.2032355 0.98022199 2.9579999
-1.1865239 0.97503555 2.9579999
-1.1591514 0.96725607 2.9579999
-1.0872496 0.97597873 2.9579999
-1.3037711 1.0065527 2.9579999
-1.2862172 1.0165265 2.9579999
-1.2032355 1.0009674 2.9579999
-1.1872442 1.0009673 2.9579999
-1.1617446 0.99059474 2.9579999
-1.0891356 1.0035607 2.9579999
-1.0787628 1.0113401 2.9579999
-1.3225217 1.0450515 2.9579999
-1.3037934 1.0309331 2.9579999
-1.2862172 1.0243061 2.9579999
-1.2360824 1.0459158 2.9579999
-1.0894406 1.0339161 2.9579999
-1.3225217 1.0657969 2.9579999
-1.3013051 1.0686259 2.9579999
-1.2343537 1.0528311 2.9579999
-1.2032355 1.0735765 2.9579999
-1.092436 1.06839 2.9579999
-1.3000476 1.0930872 2.9579999
-1.280632 1.0943218 2.9579999
-1.2382433 1.0982116 2.9579999
-1.2136083 1.0999796 2.9579999
-1.1973082 1.0987673 2.9579999
-1.1409992 1.1072878 2.9579999
-1.1258391 1.1054924 2.9579999
-1.0972857 1.0972856 2.9579999
-1.0725392 1.1052132 2.9579999
1.4962647 1.1098809 2.9579999
-1.2113032 1.1225587 2.9579999
-1.1918255 1.1259587 2.9579999
-1.1617446 1.1150674 2.9579999
-1.0960507 1.1205419 2.9579999
-1.0683899 1.1258725 2.9579999
-1.0450515 1.1280333 2.9579999
0.70534492 1.1176605 2.9579999
1.1021014 1.1358128 2.9579999
1.1150674 1.1358128 2.9579999
1.4962647 1.1150674 2.9579999
-1.2032355 1.1409992 2.9579999
-1.1980491 1.1409992 2.9579999
-1.0677418 1.1552616 2.9579999
0.65088814 1.1643378 2.9579999
0.66904044 1.1643379 2.9579999
0.70171458 1.1596701 2.9579999
0.80907214 1.1487787 2.9579999
0.82463121 1.1570771 2.9579999
0.85278577 1.15804 2.9579999
0.88726646 1.1513721 2.9579999
0.90890956 1.1561263 2.9579999
0.97503567 1.1591514 2.9579999
1.1013235 1.1526686 2.9579999
1.121291 1.1537924 2.9580002
1.4029104 1.1591514 2.9579999
-1.0683901 1.1747106 2.9579999
-1.0538635 -1.1809251 2.984
-1.0463893 -1.1719561 2.984
-1.0535833 -1.1503743 2.9839997
-1.0440114 -1.1524553 2.984
-1.0568533 -1.1248686 2.9840002
-1.0463893 -1.1301005 2.984
-1.0580158 -1.1016154 2.9839997
-1.0725491 -1.0594691 2.984
-1.0680646 -1.0336829 2.9840004
-1.0411575 -1.0280776 2.984
-1.058946 -1.0076729 2.984
-1.0574346 -0.97314209 2.9839997
-1.0463893 -0.98622191 2.984
-1.066445 -0.94233173 2.9840004
-1.0861522 -0.91663706 2.984
-1.073203 -0.9195146 2.9839997
-1.0647011 -0.88616097 2.9840002
-1.0856289 -0.85280734 2.9839997
-1.066956 -0.85497242 2.9840007
-1.0847571 -0.82839155 2.984
-1.0741588 -0.82664758 2.9840002
-1.0830129 -0.7952559 2.984
-1.073421 -0.79307592 2.984
-1.0716771 -0.77084011 2.984
-1.0692791 -0.73247254 2.9839997
-1.0696061 -0.70369685 2.9840002
-1.0663658 -0.67777491 2.984
-1.0683635 -0.6414367 2.9840002
-1.0830129 -0.62521756 2.984
-1.0703067 -0.61624855 2.9840002
-1.0649389 -0.58645362 2.984
-1.0657475 -0.55458635 2.9839997
-1.0670092 -0.52657998 2.9840002
-1.0693518 -0.49354696 2.9840004
-1.0830129 -0.46302724 2.984
-1.0739758 -0.46754578 2.984
-1.073203 -0.43686751 2.9839997
-1.0677927 -0.40666491 2.984
-1.0830129 -0.37146819 2.984
-1.0735954 -0.37460735 2.984
-1.0738569 -0.34574446 2.984
-1.0830129 -0.31914875 2.984
-1.071568 -0.31293577 2.9840002
-1.0668414 -0.28775707 2.984
-1.062085 -0.25113344 2.984
-1.0647011 -0.22497369 2.9839997
-1.0683635 -0.19829078 2.9839997
-1.0673171 -0.16306233 2.984
-1.0677927 -0.1374575 2.984
-1.0688119 -0.10239667 2.984
-1.069061 -0.075863235 2.984
-1.0635121 -0.045184996 2.984
-1.067317 -0.016858496 2.9839997
-1.0662707 0.014649451 2.9839997
-1.0851058 0.053365853 2.984
-1.0705869 0.045779526 2.9840002
-1.0851058 0.066968918 2.984
-1.0735954 0.077956006 2.9839997
-1.0706465 0.10559019 2.984
-1.0845079 0.13603061 2.984
-1.072876 0.13177966 2.9840002
-1.0847571 0.17614222 2.984
-1.0754027 0.1659954 2.984
-1.0865008 0.19794199 2.984
-1.0764729 0.19358201 2.9839997
-1.084757 0.2162538 2.984
-1.0729227 0.22572114 2.9840002
-1.0830129 0.26421329 2.984
-1.0704564 0.25322622 2.9840004
-1.0699332 0.28409472 2.9840004
-1.0754555 0.31507945 2.9839997
1.0694098 0.44628501 2.9839997
1.0915148 0.44471544 2.9839997
1.1271108 0.44845256 2.984
1.1444883 0.44863939 2.984
0.26072535 0.47436318 2.984
0.27598518 0.47479913 2.984
0.58336204 0.47610712 2.984
0.60952175 0.47610712 2.984
0.65050536 0.47261915 2.984
0.67267883 0.46713808 2.984
0.70921946 0.46506187 2.9839997
0.73321998 0.4596639 2.984
0.76778817 0.4676052 2.9839997
0.79525584 0.47087517 2.984
0.8580392 0.46489584 2.984
0.88681501 0.46738726 2.984
0.91611379 0.4614577 2.9839997
0.94698232 0.45910332 2.9839997
0.96895647 0.45936489 2.984
1.0333096 0.46368122 2.9839997
1.0594691 0.45517936 2.984
1.1266124 0.45605135 2.984
1.1443014 0.45966393 2.984
0.24328551 0.48133907 2.984
0.29037303 0.48133907 2.984
0.31653276 0.48133907 2.984
0.34530845 0.48133907 2.984
0.37539214 0.48526305 2.9839997
0.4028599 0.48343188 2.984
0.43896031 0.48343182 2.9839997
0.46498927 0.48787904 2.9839997
0.49703494 0.48657104 2.9839997
0.52319467 0.48526305 2.9839997
0.55807436 0.48308307 2.984
0.62364799 0.48343188 2.984
0.63568151 0.48395503 2.984
-1.0830129 0.876351 2.984
-1.077781 0.87373507 2.984
-1.0830129 0.92343855 2.984
-1.0680645 0.91858035 2.984
-1.3315305 0.95570225 2.984
-1.0889924 0.94436646 2.9840002
-1.077781 0.93128645 2.984
-1.085629 0.97575796 2.984
-1.077781 0.96791005 2.984
-1.0853384 1.0033711 2.9839997
-1.0767345 1.0066265 2.984
-1.0851058 1.0354023 2.9839997
-1.0740438 1.0333095 2.9840002
-1.3260609 1.0658902 2.984
-1.3171426 1.0568532 2.984
-1.0879375 1.0654706 2.9840002
-1.0756881 1.0626082 2.9839997
-1.3262985 1.0830129 2.984
-1.0870376 1.0926721 2.9840002
-1.0751649 1.0960929 2.984
1.5120325 1.1065568 2.984
-1.0600729 1.1240636 2.9840002
-1.0463893 1.1353323 2.984
1.1008015 1.1342859 2.984
1.1229064 1.1333703 2.9839997
1.2949067 1.1327164 2.984
1.3958834 1.1342859 2.984
1.4945927 1.1292285 2.984
1.5015686 1.1222526 2.984
-1.0616827 1.1530405 2.9840002
-1.0463893 1.1405643 2.984
0.58859396 1.1641082 2.9839997
0.6058594 1.1646312 2.984
0.65503973 1.1646312 2.984
0.67492115 1.1667241 2.984
0.70173478 1.15953 2.9839997
0.82950145 1.1553088 2.984
0.85594636 1.1580912 2.9840004
0.88884956 1.1492841 2.9839997
0.91506749 1.1520747 2.9839997
0.94650668 1.1588761 2.9840004
0.97314203 1.1602849 2.9840002
1.0045336 1.1588763 2.9839997
1.0347182 1.1590775 2.9840002
1.0654705 1.1542596 2.9840007
1.0928957 1.1523844 2.9840007
1.1283563 1.1440523 2.9839997
1.1530752 1.1578523 2.9840004
1.1764406 1.1599973 2.984
1.276595 1.166724 2.984
1.3001387 1.166724 2.984
1.37077 1.166724 2.984
1.3898511 1.1528747 2.9840002
1.4937208 1.1457963 2.984
1.5015686 1.1484122 2.984
-1.067317 1.179804 2.984
0.58597797 1.174572 2.9839997
0.61475372 1.174572 2.984
0.64091337 1.174572 2.9839997
0.67492115 1.174572 2.984
0.69323289 1.174572 2.984
0.86327124 1.1719561 2.984
0.94436634 1.1719561 2.984
0.96791017 1.1719561 2.984
0.99406981 1.1719561 2.984
1.0346174 1.1719561 2.984
1.0647011 1.1719561 2.984
1.0882449 1.1719561 2.984
1.1562601 1.1719561 2.984
1.1719561 1.1719561 2.984
1.276595 1.1719561 2.984
1.3001387 1.1719561 2.984
1.37077 1.1719561 2.984
1.3812339 1.1719561 2.984
-1.0524909 -1.1881989 3.01
-1.0449517 -1.1768899 3.01
-1.0502291 -1.1452247 3.01
-1.0449516 -1.1557798 3.01
1.5384009 -1.1636961 3.01
-1.0531079 -1.1236348 3.0100002
-1.0449516 -1.1373084 3.01
-1.0818943 -1.0818943 3.01
-1.0665015 -1.0950881 3.01
-1.0612429 -1.0644553 3.0099995
-1.0449516 -1.0621035 3.01
-1.0583484 -1.0327727 3.01
-1.0449516 -1.0449516 3.01
-1.0581455 -1.0106478 3.01
-1.0581455 -0.97370493 3.01
-1.064889 -0.94409204 3.01
-1.0673809 -0.91749918 3.0099993
-1.0588652 -0.88278729 3.0100002
-1.0574858 -0.85298133 3.0099995
-1.0818943 -0.8153789 3.01
-1.0679244 -0.82981443 3.0099995
-1.0708596 -0.79642773 3.0100002
-1.0818943 -0.75996476 3.01
