# .PCD v0.7 - Point Cloud Data file format
VERSION 0.7
FIELDS x y z
SIZE 4 4 4
TYPE F F F
COUNT 1 1 1
WIDTH 1545
HEIGHT 1
VIEWPOINT 0 0 0 1 0 0 0
POINTS 1545
DATA ascii
0.48352635 -0.77503026 2.6389999
0.47018746 -0.73461485 2.6313636
0.46430677 -0.70630223 2.6292503
0.48121282 -0.71025169 2.6389999
0.44165489 -0.67252034 2.625
0.46042618 -0.67551684 2.6382499
0.44097698 -0.64393717 2.6285
0.45838606 -0.64932889 2.6390002
0.43409452 -0.61630535 2.6314163
0.45345056 -0.62696481 2.6389999
0.41618058 -0.57836854 2.618
0.42736661 -0.58674425 2.6350625
0.41252479 -0.55625528 2.6278002
0.42319676 -0.55453372 2.6389999
0.41102251 -0.52444124 2.6255002
0.42198664 -0.52748328 2.6389999
0.40845093 -0.49215394 2.622375
0.42311773 -0.48943868 2.6389999
0.38374293 -0.45810461 2.618
0.40319422 -0.46563494 2.6316216
0.42304429 -0.47063673 2.6389999
0.38452733 -0.43367541 2.6228464
0.40055993 -0.43530777 2.637645
0.38071713 -0.40184569 2.6275456
0.40074244 -0.4071801 2.6389999
0.38117236 -0.37653801 2.6331201
0.39387733 -0.37652591 2.6389999
0.38106242 -0.3436878 2.632
0.39329895 -0.35628259 2.6389999
0.35803768 -0.30754519 2.618
0.37434465 -0.31443647 2.6346552
0.35636854 -0.28459403 2.618
0.36862135 -0.28687689 2.6389999
0.35510805 -0.25540805 2.6201
0.36608103 -0.25367102 2.6389999
0.34527427 -0.22129127 2.6254997
0.36322317 -0.22441173 2.6389999
0.34515411 -0.19354534 2.6285
0.36301285 -0.19770107 2.6389999
0.32721317 -0.15438011 2.6285
0.34096289 -0.1693086 2.63375
0.32495695 -0.13335796 2.6226666
0.33314735 -0.12724379 2.6389999
0.32054061 -0.10388814 2.624125
0.33468968 -0.10179502 2.6389999
0.29836473 -0.068853401 2.618
0.3157703 -0.074542671 2.6308706
0.33546087 -0.087913878 2.6389999
0.29463515 -0.043894049 2.618
0.311562 -0.044523731 2.6347997
0.29632464 -0.016320806 2.618
0.30919558 -0.016875112 2.6389999
0.29312155 0.015684092 2.6327
0.30307156 0 2.6389999
0.28643629 0.043280683 2.6264
0.26623312 0.084919192 2.618
0.27998173 0.076565966 2.6306
0.26119912 0.10742591 2.6279473
0.27630076 0.10278653 2.6389999
0.25808492 0.13325156 2.6332071
0.27415249 0.1237735 2.6389999
0.23869178 0.17901884 2.618
0.25519985 0.16562043 2.6319997
0.23754424 0.19737974 2.618
0.25467029 0.19305305 2.6355
0.23541304 0.22492111 2.618
0.24831815 0.22342023 2.6389999
0.23008512 0.25609642 2.618
0.24632218 0.2528545 2.6389999
0.22768568 0.28573391 2.62325
0.24153183 0.27854821 2.6389999
0.20311752 0.31787321 2.618
0.2221588 0.31497765 2.634258
0.20262551 0.34357968 2.6229413
0.21716273 0.34178451 2.6390002
0.20026889 0.37466499 2.63165
0.19616775 0.40295959 2.6285
0.17672372 0.44525197 2.618
0.19296134 0.43574938 2.6327
0.17243366 0.46622378 2.6256363
0.18600728 0.46501818 2.6389999
0.17524955 0.49608946 2.6226666
0.19182411 0.49800241 2.6389999
0.21284413 0.495094 2.6389999
0.17557618 0.52443337 2.618
0.19321907 0.52477086 2.6389999
0.74958152 0.53442383 2.6389999
0.76461941 0.53558064 2.6389999
0.78891146 0.53673738 2.6389999
0.83286834 0.53673738 2.6389999
0.85773873 0.53615904 2.6389999
0.88825184 0.53215551 2.6361363
0.91163343 0.5302667 2.63375
0.93234986 0.53442389 2.6389999
1.0043929 0.5369767 2.62325
1.0366609 0.53461671 2.6270001
1.0648305 0.53456801 2.6298125
1.0941253 0.52843904 2.629375
0.17901884 0.55541742 2.618
0.19152915 0.55510926 2.6353791
0.46733168 0.56796992 2.6389999
0.48583993 0.56681317 2.6389999
0.53673738 0.56912667 2.6389999
0.55695879 0.56640661 2.6342273
0.58572167 0.5658679 2.6365294
0.60845661 0.56912667 2.6389999
0.64813262 0.56821352 2.6348
0.67688501 0.56711006 2.636375
0.70506233 0.56267345 2.6331201
0.73628497 0.56097728 2.6334002
0.76549524 0.55682427 2.6319995
0.79521966 0.54940045 2.6314163
0.82427186 0.54573435 2.627625
0.85540181 0.54628783 2.6270001
0.88425875 0.54382038 2.62745
0.91967118 0.54480296 2.6196156
0.94546628 0.55052471 2.6289198
0.97390473 0.54869848 2.6280799
1.0040029 0.54372185 2.6212308
1.0318472 0.54288286 2.6240001
1.0690372 0.54719961 2.6207392
1.0844409 0.54508936 2.618
0.17836311 0.58689332 2.618
0.19125129 0.58917731 2.6390002
0.2282709 0.59529346 2.6320002
0.25409818 0.59287852 2.6370909
0.28238937 0.59441167 2.6334736
0.31708646 0.59241664 2.6347997
0.34576294 0.5903663 2.6323998
0.37452316 0.58534688 2.6305995
0.40400299 0.58669662 2.6325834
0.43622303 0.58168471 2.6311247
0.46568969 0.58226711 2.6281817
0.49422958 0.58367515 2.6307273
0.52772152 0.58419275 2.6264005
0.55054677 0.57721788 2.6222
0.58335972 0.57530224 2.62325
0.61647087 0.57836753 2.6298697
0.64144444 0.57837301 2.6290526
0.67443633 0.57409567 2.6270001
0.69312418 0.57377833 2.618
0.7573874 0.57377833 2.618
0.17311712 0.60886079 2.618
0.19468118 0.609294 2.6295161
0.22176377 0.60250002 2.6215
0.25855762 0.60281044 2.6260769
0.28662279 0.60430133 2.6192353
0.30695605 0.60387707 2.6237273
0.34885725 0.60131967 2.618
0.56318325 -1.0578334 2.6590002
0.5734399 -1.0606307 2.6589999
0.5614261 -1.0353477 2.6590002
0.536143 -0.99303013 2.6589999
0.55099267 -1.003563 2.6589999
0.536143 -0.98137474 2.6589999
0.54546726 -0.97344923 2.6590004
0.54391319 -0.94537288 2.6590002
0.536143 -0.92309839 2.6589999
0.5408051 -0.91563904 2.6590002
0.52762955 -0.88255835 2.6590004
0.5408051 -0.89978784 2.6589999
0.50817037 -0.85549772 2.6590002
0.51918989 -0.85634547 2.6590004
0.505373 -0.82426167 2.6590004
0.51570141 -0.82913888 2.6590002
0.50205123 -0.79547304 2.6590002
0.5128324 -0.79955244 2.6589999
0.49240798 -0.7685827 2.6590002
0.48552576 -0.7326178 2.6590002
0.47553551 -0.69698584 2.6589999
0.48563677 -0.70631021 2.6590004
0.47553548 -0.6760065 2.6590002
0.48019767 -0.6760065 2.6590002
0.46820936 -0.64337158 2.6590002
0.48019764 -0.65735793 2.6589999
0.4463973 -0.60490918 2.6589999
0.45999518 -0.61895096 2.6590002
0.44160572 -0.58354115 2.6590002
0.4378148 -0.55542719 2.6590004
0.43091252 -0.52781785 2.6590002
0.43321791 -0.49490124 2.6590002
0.41959018 -0.45455605 2.6589999
0.43220535 -0.46292046 2.6590002
0.41747102 -0.43696722 2.6590004
0.42637146 -0.43696713 2.6590004
0.41313496 -0.40165898 2.6590002
0.4242523 -0.41959018 2.6589999
0.40638086 -0.37296903 2.6590002
0.40429261 -0.34543341 2.6589994
0.38540134 -0.30459139 2.6589999
0.39394855 -0.31469265 2.6590004
0.38184926 -0.28305686 2.6590002
0.39317155 -0.28749695 2.6590002
0.38083634 -0.25291964 2.6590002
0.39161748 -0.26574042 2.6589999
0.3770484 -0.22727799 2.6590002
0.3733021 -0.19580875 2.6590002
0.35004699 -0.15890035 2.6590004
0.36550966 -0.17343061 2.6590002
0.34459099 -0.13803907 2.6590004
0.345355 -0.10722859 2.6590002
0.32634792 -0.062938526 2.6589999
0.33748522 -0.073816784 2.6590002
0.32634795 -0.044290077 2.6590002
0.33217558 -0.046621133 2.6590002
0.32268482 -0.014652357 2.6590002
0.33256409 -0.018648455 2.6590002
0.29837525 0.016317395 2.6589999
0.31080753 0.010256649 2.6590004
0.33101004 0.0023310566 2.6589999
0.29682118 0.046621133 2.6590002
0.30381438 0.041959018 2.6590002
0.29557794 0.07552623 2.6590004
0.30303738 0.072262757 2.6590002
0.29060507 0.10489754 2.6590002
0.26574042 0.14685658 2.6589999
0.28532138 0.1371993 2.6589992
0.26574042 0.15618078 2.6589999
0.27835557 0.16043152 2.6590002
0.26574042 0.20979509 2.6589999
0.27406567 0.19580874 2.6590002
0.26185533 0.22883204 2.6590004
0.27040255 0.21678826 2.6589999
0.26080409 0.2542223 2.6590002
0.25262827 0.28205785 2.6590002
0.23776774 0.31702369 2.6590002
0.24242988 0.31236157 2.6590002
0.2307746 0.34551439 2.6590002
0.20979509 0.38229328 2.6589999
0.22005175 0.37623248 2.6590002
0.20809978 0.40814677 2.6590004
0.21966781 0.40066752 2.6590002
0.20746404 0.43590757 2.6590004
0.2144572 0.42658335 2.6589999
0.20380093 0.46399134 2.6590002
0.2144572 0.46854237 2.6589999
0.20184205 0.48760223 2.6590002
0.2194107 0.49476674 2.6590002
1.0163406 0.49884611 2.6589999
1.0233338 0.49884611 2.6589999
1.069955 0.50817031 2.6589999
0.20912908 0.52615279 2.6590002
0.21849769 0.52246749 2.6590004
0.74593818 0.53148091 2.6589999
0.76371229 0.53177226 2.6590002
0.79383069 0.53402382 2.6590004
0.8283993 0.53235495 2.6590002
0.85456532 0.53054845 2.6590002
0.88207179 0.5286836 2.6590002
0.91843623 0.52099115 2.6590002
0.94058132 0.52914983 2.6590004
0.97545743 0.53399122 2.6590002
1.0046854 0.53614306 2.6590002
1.0377864 0.53194708 2.6590002
1.0676239 0.52412909 2.6590002
1.0911465 0.52236855 2.6590004
0.2068283 0.55479145 2.6590004
0.2144572 0.54313618 2.6589999
0.39861065 0.5687778 2.6589999
0.46621132 0.5687778 2.6589999
0.4975746 0.56453949 2.6590004
0.52565318 0.56702948 2.6590002
0.55323738 0.55893552 2.6590002
0.58605498 0.55698538 2.6590002
0.61481619 0.56236738 2.6590004
0.64534402 0.56017083 2.6590002
0.67641765 0.55506569 2.6589992
0.70508903 0.55234945 2.6590002
0.73513049 0.54843408 2.6590004
0.76059061 0.54580033 2.6590002
0.80654556 0.5408051 2.6589999
0.82053185 0.5408051 2.6590002
0.95107102 0.54313624 2.6590002
0.97438163 0.54313624 2.6590002
1.0000234 0.5408051 2.6589999
1.0256648 0.5408051 2.6589999
0.20156781 0.58770043 2.6590002
0.22597538 0.58934593 2.6590002
0.25371712 0.58325493 2.6590002
0.28468028 0.5871349 2.6590002
0.31376019 0.58276415 2.6590002
0.34157753 0.57872367 2.6590004
0.37696519 0.57743609 2.6590002
0.40560383 0.57577097 2.6590002
0.43590757 0.57577103 2.6590002
0.452225 0.5734399 2.6589999
0.50350827 0.57577103 2.6590002
0.52215666 0.57710302 2.6590002
0.6200611 0.57437229 2.6590002
0.63404739 0.5734399 2.6589999
0.58592093 -1.0641277 2.6800001
0.56857091 -1.0314159 2.6800001
0.57905316 -1.0352112 2.6800001
0.56216329 -1.0008729 2.6800003
0.57561934 -1.0196685 2.6800001
0.55979961 -0.97706497 2.6800003
0.55212468 -0.94683504 2.6800001
0.55191112 -0.91159314 2.6800003
0.53567845 -0.87400156 2.6800001
0.54350996 -0.88339949 2.6800001
0.5339697 -0.85264295 2.6800003
0.54037738 -0.85520583 2.6800001
0.52686787 -0.82583767 2.6800001
0.51654708 -0.79177028 2.6800001
0.49887013 -0.76122713 2.6800001
0.51500309 -0.77250463 2.6800001
0.49984905 -0.73479569 2.6800001
0.4988099 -0.709539 2.6800001
0.49082497 -0.67536479 2.6800003
0.4792912 -0.64375389 2.6800001
0.48477334 -0.64845288 2.6800001
0.46989334 -0.61379808 2.6800001
0.48399013 -0.62495816 2.6800001
0.45657969 -0.5850172 2.6800001
0.45305547 -0.55643201 2.6800001
0.44075996 -0.52534074 2.6800001
0.4443849 -0.49607313 2.6800001
0.45109758 -0.4910385 2.6800001
0.44326606 -0.45945126 2.6800001
0.4385671 -0.43856713 2.6800001
0.41585559 -0.39001146 2.6800001
0.42368716 -0.40254197 2.6800001
0.41585559 -0.38296306 2.6800001
0.42447034 -0.37434837 2.6800001
0.41468084 -0.33479899 2.6800001
0.42290401 -0.35242003 2.6800001
0.40849397 -0.3198407 2.6800003
0.40149775 -0.28506866 2.6800001
0.3929483 -0.25550449 2.6800001
0.38531253 -0.21615094 2.6800001
0.39209989 -0.23129193 2.6800001
0.38178831 -0.19500574 2.6800001
0.3665168 -0.16289636 2.6800001
0.35359472 -0.13157013 2.6800001
0.36181787 -0.14331746 2.6800001
0.35594419 -0.10455126 2.6800001
0.3618179 -0.098677598 2.6800001
0.3511385 -0.076464452 2.6800003
0.36181787 -0.086930268 2.6800001
0.34197792 -0.046989329 2.6800001
0.34302211 -0.016446264 2.6800001
0.3189401 0.014977848 2.6800001
0.33644363 0.0075182929 2.6800001
0.31482857 0.044501655 2.6800001
0.31200916 0.076122724 2.6800003
0.30543062 0.10243674 2.6800001
0.30073172 0.13157013 2.6800001
0.28844222 0.16880015 2.6800001
0.30073172 0.15741426 2.6800001
0.28350231 0.20127098 2.6800001
0.26783922 0.23494665 2.6800001
0.27841181 0.22241619 2.6800001
0.26783922 0.2537424 2.6800001
0.27253816 0.25609189 2.6800001
0.26143157 0.28791648 2.6800003
0.27253813 0.27723709 2.6800001
0.24837223 0.31885618 2.6800001
0.2396456 0.35476947 2.6800001
0.24610662 0.3447842 2.6800001
0.23494667 0.37268421 2.6800001
0.23293285 0.40724087 2.6800001
0.21928357 0.43700084 2.6800001
0.22681394 0.46700168 2.6800001
0.23024774 0.49197838 2.6800001
0.98677593 0.50748479 2.6800001
1.0082568 0.50312161 2.6800001
1.0337654 0.50748485 2.6800001
0.23118751 0.52722037 2.6800001
0.74713039 0.53332895 2.6800001
0.76357669 0.52706367 2.6800001
0.79588187 0.53039205 2.6800001
0.8237592 0.52917224 2.6800001
0.85551918 0.52220815 2.6800003
0.88574886 0.52628052 2.6800001
0.91562068 0.52225286 2.6800001
0.94657409 0.52132058 2.6800001
0.97635663 0.52525908 2.6800003
1.0046042 0.52324009 2.6800001
1.0354239 0.52337843 2.6800001
1.0600241 0.51909393 2.6800001
1.1018999 0.52158159 2.6800001
1.1171714 0.52275634 2.6800001
0.21816476 0.55480981 2.6800001
0.31952748 0.56857097 2.6800001
0.3453716 0.56857091 2.6800001
0.36181787 0.56857091 2.6800001
0.40075189 0.56655705 2.6800001
0.44404921 0.56857091 2.6800001
0.46832702 0.56778777 2.6800001
0.49652064 0.56230569 2.6800001
0.52575856 0.56126148 2.6800001
0.5541805 0.55388677 2.6800001
0.58390427 0.54903322 2.6800001
0.61513311 0.55361986 2.6800003
0.64556122 0.55085963 2.6800001
0.66912812 0.54695576 2.6800001
0.70901686 0.54455423 2.6800001
0.73538303 0.54272681 2.6800001
0.20675308 0.58736664 2.6800001
0.22282836 0.58192575 2.6800001
0.25441369 0.57729757 2.6800001
0.28559074 0.57875192 2.6800001
0.31200916 0.57702905 2.6800003
0.34772104 0.57483619 2.6800001
0.3735652 0.57561934 2.6800001
0.41068679 0.57514948 2.6800001
0.43230188 0.57535827 2.6800001
0.45579654 0.57326996 2.6800001
0.52628052 0.5732699 2.6800001
0.62066251 -1.0861592 2.723
0.59394956 -1.0611244 2.7028332
0.6098094 -1.0636739 2.713064
0.59041923 -1.0308239 2.7083335
0.60315657 -1.0439861 2.7230003
0.58572102 -1.0058929 2.7144833
0.5659225 -0.96372575 2.701
0.58270913 -0.97713923 2.7179997
0.56134468 -0.94273061 2.7010002
0.5807969 -0.94603282 2.7229998
0.56354553 -0.91445595 2.7023752
0.57939863 -0.91462451 2.723
0.55993569 -0.88560098 2.7101667
0.57291919 -0.89041191 2.723
0.55898881 -0.8536557 2.7166123
0.57291919 -0.85699165 2.723
0.53573203 -0.82224518 2.701
0.55352765 -0.8239392 2.7207239
0.53268844 -0.79598558 2.705889
0.54904759 -0.79373175 2.7229998
0.50672555 -0.75772047 2.701
0.52729177 -0.76539516 2.714828
0.54522806 -0.76675683 2.723
0.50672555 -0.74824899 2.701
0.52821863 -0.73581707 2.7160854
0.5442732 -0.73285913 2.723
0.50238454 -0.70168084 2.701
0.52032906 -0.70584911 2.7187688
0.50230038 -0.67269844 2.7083333
0.51494521 -0.67829537 2.723
0.49905592 -0.64667773 2.7119999
0.51085293 -0.64548898 2.723
0.47416732 -0.60558444 2.701
0.49577501 -0.61376858 2.7156661
0.51085293 -0.62066245 2.7230003
0.47158724 -0.58459109 2.7046669
0.49007058 -0.58920807 2.7229998
0.47019863 -0.55563903 2.7149999
0.48220703 -0.55668652 2.723
0.44910726 -0.52093291 2.701
0.46646011 -0.52593064 2.7145879
0.482207 -0.51801443 2.723
0.44989654 -0.50672555 2.701
0.46601748 -0.4950254 2.7099626
0.482207 -0.50130433 2.7230003
0.44989654 -0.47120744 2.701
0.46272823 -0.46882808 2.7167141
0.44527137 -0.43064597 2.7120001
0.45785791 -0.43732834 2.7229998
0.43883714 -0.40213522 2.715235
0.45356101 -0.39149478 2.723
0.44062763 -0.37585497 2.7152998
0.45356101 -0.38194615 2.7230003
0.43531987 -0.34474126 2.7119999
0.41319448 -0.31137577 2.701
0.42799112 -0.31662831 2.7201302
0.41254374 -0.28577513 2.7076001
0.42014074 -0.27929813 2.723
0.40809849 -0.25511298 2.7010002
0.42252791 -0.25423291 2.7229998
0.40586528 -0.22491106 2.7156668
0.42205048 -0.23489688 2.723
0.38714781 -0.191798 2.701
0.39568701 -0.19457425 2.7189999
0.37970254 -0.16285528 2.7119999
0.39388198 -0.16471426 2.723
0.37583014 -0.13580583 2.7159593
0.37535408 -0.10667697 2.7172608
0.35754934 -0.068668418 2.701
0.37150124 -0.074018717 2.7144444
0.35242873 -0.041994087 2.7077694
0.36921462 -0.047478024 2.7229998
0.35648301 -0.014322979 2.7229998
0.3220312 0.021310888 2.701
0.34695825 0.016398018 2.7131379
0.36284882 0.0071614897 2.723
0.32473737 0.047357533 2.701
0.34398064 0.045865722 2.7143331
0.32421696 0.074679188 2.701
0.34333634 0.073430374 2.7159026
0.32035467 0.10835781 2.7106798
0.33761305 0.10128393 2.723
0.31534609 0.13455504 2.71
0.29480064 0.17877468 2.701
0.31438431 0.1663195 2.7133195
0.29282746 0.19337659 2.701
0.31227031 0.19351262 2.72137
0.28856528 0.22889474 2.7010002
0.30627307 0.22105132 2.7229998
0.28678972 0.25520304 2.706923
0.30197614 0.25303933 2.7229998
0.26520219 0.29835245 2.701
0.28427517 0.28305748 2.7133749
0.30078256 0.2721366 2.723
0.26192236 0.3140395 2.7020476
0.2803832 0.31770977 2.7229998
0.2590332 0.34640914 2.7065001
0.27750775 0.34255788 2.7229998
0.25567371 0.37551686 2.7136924
0.2721366 0.37001032 2.723
0.25383034 0.40282935 2.7167144
0.23205188 0.43805709 2.701
0.25004387 0.43521699 2.7162306
0.23272844 0.45801502 2.701
0.25479087 0.46585879 2.7145877
0.27372807 0.47584122 2.7230003
0.23678766 0.49725407 2.701
0.25459379 0.4944061 2.7154372
0.27452379 0.482207 2.723
0.82357132 0.50607866 2.723
0.85221732 0.50607866 2.723
0.89279908 0.5060786 2.7230003
0.91428351 0.50607866 2.723
0.94697368 0.50305748 2.7174997
0.97886842 0.50058669 2.7179997
1.0028238 0.50047767 2.7096088
0.23678766 0.51856494 2.701
0.24843512 0.52437693 2.7138333
0.53711176 0.53949893 2.723
0.55620909 0.53949893 2.723
0.58748525 0.53616768 2.712579
0.61179584 0.53745282 2.723
0.64527845 0.53532541 2.7119999
0.67405963 0.53406048 2.7219522
0.70435447 0.53473687 2.7131379
0.7376138 0.53361249 2.7142
0.76488805 0.52460569 2.7163999
0.79773325 0.52534842 2.7148516
0.82367128 0.51891339 2.7110562
0.8525449 0.51429039 2.7105651
0.88580191 0.51813817 2.7140367
0.91456121 0.5190075 2.7192068
0.9385432 0.51392329 2.7104287
0.97471368 0.51692665 2.7077692
1.0181869 0.52803648 2.701
1.0252906 0.52803648 2.701
0.23152569 0.55855572 2.701
0.24856751 0.55821896 2.7131
0.28885549 0.56476784 2.713222
0.31463677 0.56403446 2.7138333
0.34734026 0.56056648 2.7148283
0.3746241 0.55876386 2.7176478
0.40402329 0.55964619 2.7154133
0.43272129 0.56048334 2.7187219
0.46704096 0.56377858 2.717077
0.49393097 0.55651611 2.7169309
0.52500486 0.55078727 2.7109997
0.55498999 0.54723084 2.7091053
0.57773685 0.54519147 2.7072859
0.61678463 0.54739505 2.7083333
0.64060438 0.5480836 2.7065001
0.67598975 0.5456003 2.7077694
0.6999343 0.5456264 2.7034447
0.73404169 0.54461157 2.701
0.23047334 0.57776189 2.701
0.2579785 0.57550979 2.7112668
0.28149363 0.57394505 2.7076001
0.30782396 0.57302612 2.701
0.33150271 0.57302612 2.701
0.37886027 0.57302612 2.701
0.4049069 0.57302612 2.701
0.43599895 0.57359141 2.7065001
0.46647167 0.57302612 2.701
0.63266575 -1.0897248 2.7439997
0.62256241 -1.0594144 2.744
0.63163489 -1.0701364 2.744
0.6137349 -1.0362791 2.7439997
0.610672 -1.0060452 2.7440004
0.59284014 -0.97131699 2.7439997
0.6089536 -0.97437167 2.7439997
0.5936954 -0.94923919 2.7439997
0.60716671 -0.9530881 2.7439997
0.58963281 -0.91304874 2.7439997
0.58305079 -0.88675433 2.7439997
0.58022422 -0.85205412 2.7439997
0.56482857 -0.81981939 2.744
0.57519931 -0.83019006 2.7439997
0.56359142 -0.79624474 2.744
0.5725264 -0.79865026 2.744
0.55568743 -0.76833999 2.7439997
0.55087626 -0.73129427 2.7439997
0.53604192 -0.70282835 2.744
0.54558414 -0.70675749 2.7439997
0.53103036 -0.67416179 2.744
0.54503423 -0.67768443 2.744
0.5235402 -0.6462245 2.7439997
0.51920289 -0.61462402 2.744
0.5003593 -0.58348507 2.7439997
0.4922173 -0.5558725 2.744
0.49153882 -0.5276224 2.744
0.4904964 -0.49290189 2.7439997
0.47389793 -0.45946449 2.7439997
0.48592576 -0.46890172 2.744
0.44743663 -0.42338088 2.744
0.47004899 -0.43348432 2.7439997
0.48111463 -0.44743663 2.744
0.44743666 -0.41375861 2.7440002
0.46491721 -0.40830594 2.7440007
0.46187004 -0.37847686 2.744
0.44743663 -0.34640253 2.744
0.45530945 -0.34027928 2.7439997
0.44262552 -0.3124238 2.7439997
0.45677593 -0.31583762 2.7439997
0.43627474 -0.28789899 2.744
0.45345056 -0.29468271 2.744
0.43428615 -0.25755671 2.744
0.41536233 -0.21489787 2.744
0.42779112 -0.22171366 2.744
0.41055119 -0.19485141 2.7439997
0.42498463 -0.20527558 2.7440002
0.40866446 -0.16669208 2.7439997
0.38970286 -0.12749538 2.744
0.39847618 -0.13725916 2.7439997
0.38970286 -0.10343965 2.744
0.39643848 -0.10151519 2.7439997
0.38729727 -0.074572772 2.744
0.39872378 -0.07336998 2.7439997
0.38328794 -0.043567605 2.7439997
0.39932519 -0.048111469 2.744
0.37430713 -0.019052142 2.744
0.36736542 0.017182667 2.744
0.36601722 0.04552085 2.744
0.36404344 0.074572772 2.744
0.3518151 0.10464244 2.7439997
0.360836 0.098628506 2.744
0.32715794 0.14673996 2.744
0.34159139 0.13247836 2.7440004
0.32715794 0.15636227 2.744
0.33196914 0.16598456 2.744
0.32523352 0.20014369 2.744
0.33389357 0.19485143 2.7439997
0.31975624 0.22464353 2.744
0.31661046 0.25517583 2.7440002
0.29454905 0.29294536 2.7439997
0.30871525 0.28185302 2.744
0.29533035 0.3142049 2.744
0.30310223 0.30310223 2.744
0.2918762 0.343997 2.744
0.2694242 0.38729727 2.744
0.28054994 0.37677291 2.7439997
0.26782051 0.40894744 2.7439997
0.27767187 0.40516731 2.744
0.26598769 0.4367834 2.744
0.27664095 0.43540877 2.744
0.2694242 0.45705891 2.7440002
0.28225392 0.46427572 2.744
0.98147386 0.47149235 2.744
0.2694242 0.50998151 2.744
0.28509924 0.49647933 2.7440004
0.80634815 0.5061326 2.744
0.82447869 0.5008657 2.7439997
0.85397846 0.50035924 2.7439997
0.88491917 0.50035918 2.7440004
0.91652346 0.49554816 2.7440007
0.94431198 0.4912346 2.7440004
0.97337091 0.49174976 2.7439997
1.0064919 0.49458581 2.744
0.26426944 0.52716416 2.744
0.28145209 0.5171982 2.7439997
0.35121369 0.5388484 2.7440002
0.37045828 0.5388484 2.744
0.44382828 0.53764558 2.744
0.46547839 0.53463864 2.7439997
0.4907369 0.53671008 2.7439997
0.5281952 0.53541183 2.744
0.55737132 0.53283453 2.7439997
0.58311093 0.52970731 2.7439997
0.6144796 0.52845633 2.744
0.6437915 0.52982748 2.7439997
0.67740941 0.52409428 2.744
0.70345837 0.52441502 2.744
0.7346251 0.52626544 2.744
0.76112336 0.51912266 2.7439997
0.79531956 0.51812345 2.744
0.26401168 0.55689025 2.7439997
0.28683597 0.55580199 2.7439997
0.31593195 0.5540837 2.7439997
0.34133819 0.5497368 2.7439997
0.37789369 0.54540908 2.7439997
0.40282425 0.55022025 2.7439997
0.43712705 0.54743981 2.744
0.46456432 0.55135727 2.744
0.49554807 0.54606515 2.744
0.52281129 0.54446149 2.744
0.2694242 0.5725264 2.744
0.27423537 0.5725264 2.744
0.65282118 -1.1124856 2.789
0.65282124 -1.0953705 2.7889998
0.64292312 -1.0629835 2.77525
0.6388309 -1.0370556 2.7802002
0.62584001 -1.0042549 2.767
0.63606304 -1.0068588 2.7856152
0.62514699 -0.97514611 2.767
0.63624936 -0.97637928 2.7889998
0.61498499 -0.94466275 2.7784402
0.63244605 -0.95681906 2.7890003
0.61335462 -0.91709155 2.7822313
0.59403592 -0.88620239 2.767
0.60572094 -0.88592666 2.7875338
0.59187979 -0.85628504 2.767
0.60147572 -0.85331315 2.789
0.58897823 -0.82690471 2.778579
0.60147572 -0.83619797 2.789
0.58400643 -0.79316288 2.7787335
0.56580299 -0.75986201 2.767
0.57649881 -0.76742178 2.7834997
0.56415695 -0.73361212 2.7669997
0.57580298 -0.738397 2.789
0.56080788 -0.705549 2.7752497
0.57213545 -0.7163918 2.789
0.55646372 -0.67326444 2.7762632
0.53689635 -0.6447069 2.767
0.54694802 -0.64894903 2.783
0.53147298 -0.60996717 2.7758
0.54279518 -0.62348092 2.789
0.50940478 -0.57732534 2.767
0.5248788 -0.58512074 2.7810795
0.50567281 -0.55605346 2.767
0.51694781 -0.55327386 2.789
0.50334036 -0.52881056 2.767
0.5154109 -0.526169 2.7889998
0.50563139 -0.49215499 2.767
0.51345491 -0.50122976 2.789
0.49909061 -0.46419525 2.7755554
0.51345491 -0.47433448 2.789
0.49068624 -0.43786165 2.777154
0.48812142 -0.40360749 2.7802
0.47232738 -0.36991847 2.7807498
0.48875007 -0.37274182 2.7875335
0.47078797 -0.34822986 2.77525
0.48633733 -0.34585968 2.7889998
0.47265828 -0.31617188 2.7743335
0.48411459 -0.32763311 2.789
0.44633552 -0.27653396 2.767
0.46324381 -0.28445449 2.7784781
0.44665638 -0.25352621 2.7732859
0.45632255 -0.2562131 2.7834997
0.44358411 -0.22451377 2.7725
0.45599687 -0.23594475 2.789
0.43418315 -0.19342878 2.7756426
0.41560954 -0.15201283 2.767
0.4290494 -0.16443533 2.7825294
0.41092926 -0.13031265 2.7735999
0.42543405 -0.13447627 2.7890005
0.41076913 -0.10572685 2.7724998
0.42360029 -0.10941479 2.7889998
0.41239187 -0.077869475 2.77525
0.42176649 -0.073350698 2.7889998
0.40950519 -0.042076103 2.7694445
0.42217404 -0.057050548 2.7890003
0.38423666 -0.010673241 2.767
0.40036437 -0.019542383 2.7873075
0.38283736 0.012892053 2.772176
0.39392039 0.015213478 2.7889998
0.38153133 0.044890217 2.7795718
0.3912037 0.046455439 2.789
0.37846002 0.072587825 2.7780001
0.3912037 0.063570604 2.789
0.37076259 0.10453851 2.779
0.3553704 0.13644767 2.767
0.36775205 0.13394591 2.7779999
0.34661084 0.16441105 2.7669992
0.36308593 0.16137154 2.7889998
0.34915614 0.19345514 2.7747645
0.36186343 0.18093172 2.789
0.32747442 0.23408356 2.767
0.34334102 0.22520007 2.7805386
0.32892987 0.2590687 2.767
0.33984527 0.25412834 2.7738745
0.32208392 0.28758457 2.7669995
0.33759275 0.28443012 2.7823999
0.31662005 0.3153851 2.7780001
0.33496821 0.30318287 2.789
0.29351413 0.359009 2.767
0.31194222 0.34349537 2.782053
0.29372144 0.37543711 2.7709999
0.30540562 0.37342173 2.7889998
0.29299989 0.40588576 2.7758
0.30585018 0.40542927 2.7889998
0.29159144 0.43366432 2.7693152
0.30611691 0.43423617 2.7890003
0.29412058 0.46028352 2.767
0.31192383 0.46707502 2.784286
0.92354429 0.47352636 2.779
0.94267857 0.47245887 2.767
0.96382594 0.47382721 2.767
0.29593986 0.50940472 2.767
0.30621386 0.49247274 2.7788465
0.55991036 0.50856483 2.789
0.5843606 0.50856483 2.789
0.61569113 0.50665456 2.7809999
0.64059609 0.50611991 2.7889998
0.68216151 0.50856483 2.789
0.70067388 0.50646913 2.789
0.7400685 0.50478274 2.7874286
0.76050991 0.50629985 2.784286
0.79808003 0.50239235 2.7784786
0.82163799 0.49182382 2.7764285
0.85723442 0.49284911 2.7779994
0.88496912 0.48790959 2.7739999
0.91372466 0.48543108 2.7738745
0.94118577 0.4815087 2.767
0.96220875 0.48191297 2.767
0.28680772 0.53080815 2.7669995
0.31084374 0.53006274 2.781348
0.34678558 0.53799212 2.7858572
0.37541255 0.53691083 2.7807496
0.40465134 0.53607136 2.7889998
0.44050398 0.53598332 2.7827146
0.46469146 0.52550519 2.7752495
0.4948552 0.53070062 2.777
0.52799124 0.52983755 2.7785237
0.55423033 0.52019292 2.7728662
0.58584607 0.51930606 2.7794352
0.61248618 0.51587522 2.7725003
0.64220929 0.52120602 2.7794352
0.67535967 0.51913899 2.7802005
0.70407683 0.516945 2.7766249
0.73547059 0.51860237 2.7757993
0.76674318 0.51573974 2.7706668
0.7898376 0.51491976 2.773
0.28257334 0.54785424 2.7706664
0.31578594 0.54554749 2.7708819
0.34303322 0.54298514 2.7816668
0.38811785 0.543365 2.767
0.40686378 0.54475677 2.7758
0.42697522 0.54375774 2.77525
0.5045532 0.543365 2.767
0.67232364 -1.119643 2.8120003
0.67120302 -1.096336 2.8120003
0.65573967 -1.0501695 2.812
0.6691705 -1.0649605 2.8119993
0.65409625 -1.030448 2.812
0.66991448 -1.0390763 2.812
0.65221798 -1.0040355 2.812
0.66067004 -1.0131917 2.812
0.6496492 -0.97360367 2.812
0.63700426 -0.94465953 2.8120003
0.62418526 -0.90620261 2.812
0.63774371 -0.91359818 2.812
0.6209532 -0.88363248 2.812
0.63390517 -0.89239758 2.812
0.61465323 -0.85706329 2.812
0.60788596 -0.82656246 2.812
0.59460306 -0.78787369 2.812
0.60369676 -0.79981601 2.812
0.58868647 -0.76765913 2.812
0.5873307 -0.73585826 2.812
0.5833528 -0.70683616 2.8120003
0.56534946 -0.66231346 2.812
0.57623744 -0.67422861 2.812
0.55877554 -0.64193463 2.8120003
0.57192332 -0.65573967 2.812
0.55454957 -0.61300969 2.812
0.5344525 -0.57488149 2.812
0.55076385 -0.58445466 2.812
0.53196132 -0.55531579 2.812
0.54830945 -0.55635369 2.812
0.53001511 -0.5259065 2.812
0.54234105 -0.53494549 2.812
0.52486068 -0.49662304 2.8120003
0.51679277 -0.46479973 2.8120003
0.50403595 -0.43652767 2.812
0.51275879 -0.44866395 2.812
0.50219381 -0.40499499 2.812
0.5015834 -0.37865266 2.8120003
0.51275879 -0.37224317 2.812
0.50026864 -0.34775564 2.8120003
0.51275879 -0.35991725 2.812
0.47824621 -0.31061351 2.812
0.48909301 -0.31357175 2.8120003
0.47542888 -0.27891827 2.812
0.48696911 -0.28672019 2.812
0.47190717 -0.25532293 2.812
0.48317656 -0.26377496 2.812
0.46098989 -0.22433199 2.812
0.44866395 -0.1824238 2.812
0.45746818 -0.19298892 2.812
0.44443792 -0.16516751 2.812
0.45993343 -0.16622403 2.812
0.4437336 -0.13558526 2.812
0.45429876 -0.13734612 2.812
0.43776527 -0.10639225 2.812
0.45359436 -0.11586377 2.812
0.43297642 -0.075748459 2.8120003
0.4289425 -0.046838544 2.812
0.41261065 -0.01448297 2.812
0.42401209 -0.029582238 2.812
0.40766406 0.013493654 2.812
0.4005928 0.049303733 2.812
0.38738647 0.082407676 2.812
0.39583859 0.075364277 2.812
0.38555524 0.10748214 2.8120003
0.38210392 0.13213399 2.812
0.37189105 0.16481535 2.812
0.35991725 0.20707569 2.812
0.36753693 0.1958703 2.8120003
0.35991725 0.224332 2.812
0.36731279 0.224332 2.812
0.35633153 0.2532419 2.8120003
0.3648476 0.24158828 2.812
0.3514652 0.28490514 2.812
0.34211314 0.31390041 2.812
0.32376117 0.35416517 2.812
0.33649796 0.33988759 2.812
0.31995526 0.37756282 2.812
0.33230719 0.38555518 2.812
0.31969577 0.40558809 2.812
0.3321839 0.40552321 2.812
0.32076433 0.43706316 2.812
0.33481717 0.44014785 2.8120003
0.88623464 0.44743136 2.812
0.32146034 0.4555665 2.812
0.33460799 0.4637838 2.8120003
0.83323306 0.47824621 2.812
0.8559128 0.47824621 2.812
0.88856286 0.46728984 2.812
0.91704953 0.47483283 2.812
0.93184054 0.46838549 2.812
0.32085353 0.49948475 2.812
0.55713218 0.50782847 2.812
0.58375615 0.50782847 2.812
0.61728269 0.50289816 2.812
0.64235717 0.49655902 2.812
0.67227089 0.50289816 2.812
0.70571572 0.50043297 2.8120003
0.73709083 0.49617481 2.8120003
0.76576483 0.49615124 2.812
0.79641968 0.49796772 2.8120003
0.8233723 0.48440912 2.812
0.8559128 0.48712087 2.8120003
0.88376939 0.48502541 2.812
0.9096539 0.48317656 2.812
0.3212328 0.52148181 2.812
0.34315395 0.53248024 2.812
0.37744746 0.53302813 2.812
0.40618694 0.53210104 2.812
0.43551639 0.5314942 2.8120003
0.46768117 0.52050656 2.812
0.49829647 0.52196223 2.8120003
0.52508479 0.52426291 2.812
0.54628533 0.51473099 2.812
0.59065878 0.51374483 2.812
0.66739333 0.517241 2.8120003
0.71983451 0.51522398 2.812
0.72723007 0.51522398 2.812
0.40429059 0.54234105 2.812
0.42647728 0.54234105 2.812
0.68222857 -1.1196501 2.835
0.69313651 -1.1222737 2.835
0.6859566 -1.0910686 2.835
0.70012313 -1.0992702 2.8349996
0.95295429 -1.0857428 2.8350003
0.97425717 -1.0960393 2.835
0.6859566 -1.066215 2.835
0.69363862 -1.0673449 2.8349998
0.94985569 -1.07096 2.8349998
0.96680117 -1.0786419 2.835
0.67850059 -1.0339054 2.8349996
0.69216996 -1.0413616 2.835
0.6730327 -1.0075611 2.8349996
0.65364707 -0.96431577 2.835
0.66683853 -0.97769845 2.8349998
0.65364707 -0.94691825 2.8349998
0.66110307 -0.94691837 2.835
0.65447551 -0.91626573 2.835
0.66234577 -0.91833681 2.835
0.64551324 -0.88726997 2.8349996
0.66110307 -0.89721131 2.835
0.62506545 -0.85496038 2.835
0.63417852 -0.8595168 2.8349998
0.62233156 -0.82115972 2.8349998
0.63353837 -0.82152116 2.8349998
0.61673498 -0.79052544 2.8349993
0.63326722 -0.79481488 2.8349998
0.59648401 -0.76797318 2.835
0.609451 -0.76354271 2.8349996
0.63127893 -0.77542919 2.835
0.60845882 -0.73475987 2.8349996
0.59435368 -0.69731826 2.8350003
0.60592836 -0.70981598 2.8349998
0.59182405 -0.67135513 2.8349996
0.60145468 -0.66110307 2.835
0.58370215 -0.64406055 2.8349993
0.60145468 -0.6561324 2.835
0.56417441 -0.62133747 2.835
0.58046728 -0.61470997 2.8349993
0.56583136 -0.58322883 2.835
0.57434183 -0.58699447 2.8349998
0.5620442 -0.55103755 2.8349998
0.57163048 -0.55671847 2.835
0.53683555 -0.51198208 2.835
0.55096275 -0.52663249 2.8349996
0.53559291 -0.49209931 2.835
0.54429162 -0.50701141 2.835
0.53128016 -0.46402949 2.8349996
0.54180634 -0.47221649 2.835
0.52235574 -0.43374759 2.8349996
0.52156854 -0.40653223 2.8349996
0.5238353 -0.37624374 2.8349998
0.50535452 -0.33469379 2.835
0.51604903 -0.34840086 2.8349998
0.50452608 -0.31563944 2.8349998
0.51633143 -0.3168821 2.8349996
0.50051129 -0.28524172 2.8349998
0.51446742 -0.298242 2.835
0.48837125 -0.25723374 2.8349998
0.47363675 -0.22474666 2.8349998
0.47252712 -0.19789599 2.8349996
0.48215792 -0.19634265 2.835
0.4755303 -0.16403311 2.835
0.48215789 -0.17645983 2.835
0.46689072 -0.13811447 2.8349998
0.44736299 -0.099414006 2.835
0.45896134 -0.10637298 2.8349998
0.44465169 -0.0795312 2.8349998
0.45233375 -0.075554639 2.835
0.44305509 -0.045067679 2.8349998
0.45375395 -0.051837303 2.8350003
0.43668514 -0.016200799 2.8349993
0.41505343 0.027338849 2.835
0.43162248 0.0132552 2.8349996
0.41318941 0.045978975 2.8349996
0.42476889 0.046995711 2.8349998
0.4085294 0.07735651 2.8349996
0.42250949 0.064619094 2.835
0.40511212 0.10687005 2.8349996
0.38771459 0.1441503 2.835
0.40002301 0.1370493 2.8349996
0.38373807 0.16800965 2.8349998
0.39765602 0.16173893 2.8349998
0.38132372 0.19492243 2.8349998
0.38025853 0.22616683 2.8349998
0.37255403 0.25698522 2.8349996
0.36812416 0.2833299 2.8349996
0.35568118 0.31922939 2.835
0.3628611 0.30569804 2.835
0.34901416 0.3486591 2.8349998
0.33838996 0.37242019 2.8349998
0.34049293 0.40809447 2.8349998
0.34518749 0.43493626 2.8349996
0.34930465 0.46408269 2.8349998
0.6561324 0.47718719 2.835
0.66855913 0.47718719 2.835
0.76548779 0.47718722 2.835
0.78892112 0.47505692 2.8350003
0.83259225 0.47718719 2.835
0.85610753 0.47489306 2.8349998
0.88789129 0.46910983 2.8349996
0.91343933 0.46841535 2.8349996
0.33867037 0.49707004 2.8349998
0.37363097 0.50535452 2.835
0.48961392 0.50701141 2.835
0.53435022 0.50701141 2.835
0.55577177 0.50038385 2.8349996
0.58315349 0.50023323 2.8349996
0.61322743 0.49942458 2.8349996
0.64580864 0.48674628 2.8349998
0.67428625 0.4903703 2.8349996
0.70186275 0.49110523 2.8349998
0.7331782 0.487957 2.8349996
0.76697904 0.48514032 2.8349998
0.79185414 0.4910188 2.8349996
0.82140815 0.48340055 2.835
0.85993111 0.48215789 2.835
0.87981391 0.48464325 2.835
0.3464992 0.51964521 2.8349996
0.37528786 0.52192354 2.8349996
0.40469784 0.52109498 2.8349996
0.43493626 0.52192342 2.8349996
0.46476048 0.51850605 2.8349996
0.49756709 0.51446742 2.8349998
0.52391177 0.51595861 2.8349998
0.54429162 0.51198208 2.835
0.59151328 0.51198208 2.835
0.70930833 -1.1429138 2.859
0.72184026 -1.1429138 2.859
0.95744091 -1.1454202 2.859
0.97498572 -1.1454202 2.8589997
0.99754322 -1.1454201 2.859
0.71181482 -1.1282337 2.859
0.72384542 -1.1238652 2.859
0.94916993 -1.1211081 2.8590002
0.97399837 -1.1259007 2.8590004
0.99816978 -1.1266222 2.859
0.71074069 -1.0967247 2.859
0.72470468 -1.099231 2.859
0.9469142 -1.0977988 2.8590002
0.97770107 -1.0967546 2.8590002
0.99561536 -1.0962565 2.8589997
0.70596647 -1.0652158 2.859
0.94699764 -1.0706463 2.8589997
0.97853649 -1.0662602 2.8590002
0.99704188 -1.058699 2.8589997
0.69677639 -1.0326327 2.8589997
0.98166943 -1.0343035 2.8589997
0.99754322 -1.0476711 2.859
0.68374318 -1.0005509 2.859
0.69427001 -1.015088 2.859
0.98375809 -1.0021384 2.8589997
0.99754328 -1.002556 2.859
0.67763668 -0.97202355 2.8589997
0.98501128 -0.97999853 2.8589997
0.99467874 -0.98107266 2.859
0.67572272 -0.94791669 2.8589997
0.67556852 -0.91309726 2.8589997
0.65416777 -0.87723649 2.859
0.66455144 -0.88941032 2.859
0.64437008 -0.85353976 2.8589997
0.64664865 -0.82460231 2.859
0.64364094 -0.79402429 2.859
0.62409109 -0.76946169 2.8589997
0.63383824 -0.76806927 2.8589997
0.62459236 -0.73236716 2.8589997
0.63161027 -0.73938501 2.859
0.61657196 -0.70205295 2.8590002
0.61114138 -0.67797846 2.8589997
0.60598934 -0.64330667 2.8589997
0.59551829 -0.60754889 2.859
0.60376143 -0.61768585 2.8589997
0.58482432 -0.58148247 2.8589997
0.57981151 -0.55391216 2.859
0.55976033 -0.5213291 2.859
0.57312787 -0.53469652 2.859
0.55170065 -0.49449596 2.859
0.53636742 -0.45115018 2.859
0.54909217 -0.4631038 2.8589997
0.53636742 -0.43611184 2.859
0.54513985 -0.43360543 2.8589997
0.53636742 -0.4010224 2.859
0.54352856 -0.4067513 2.859
0.53135467 -0.36092013 2.859
0.52734452 -0.33986649 2.8589997
0.53010148 -0.31455192 2.8589997
0.50629079 -0.27319652 2.859
0.51416802 -0.28501233 2.859
0.49841356 -0.25099704 2.859
0.51380992 -0.26317096 2.859
0.49154726 -0.22380586 2.859
0.4937588 -0.19299203 2.8589997
0.49187902 -0.16980794 2.8589997
0.47621414 -0.13033228 2.859
0.48122683 -0.13283865 2.859
0.47070003 -0.10175943 2.8589997
0.48122683 -0.11529393 2.859
0.46267954 -0.077196799 2.8589997
0.45616296 -0.036342651 2.859
0.43611184 -0.00501278 2.859
0.45516044 -0.019048562 2.859
0.4441323 0.014035783 2.859
0.45115018 0.01754473 2.859
0.44005048 0.041176405 2.859
0.41606072 0.080204479 2.859
0.42874008 0.074601948 2.859
0.42335203 0.10253415 2.8589997
0.41391239 0.13677728 2.859
0.42501214 0.13248062 2.859
0.40979475 0.16667494 2.8589997
0.4210735 0.15288979 2.859
0.3979376 0.19202805 2.8589997
0.39300194 0.22206615 2.8589997
0.38598403 0.25815815 2.859
0.39099681 0.2481326 2.859
0.38159782 0.28572845 2.8589997
0.37282547 0.31016576 2.8589997
0.36509746 0.3467173 2.8589997
0.35173008 0.37679395 2.8589997
0.36593294 0.37462175 2.859
0.35317317 0.40421236 2.8589997
0.36092013 0.40352875 2.859
0.35423645 0.42608628 2.859
0.36092013 0.44112462 2.859
0.35590735 0.47621411 2.859
0.36092013 0.45616299 2.859
0.56393772 0.47621411 2.859
0.57897604 0.47621411 2.859
0.62102777 0.47231525 2.8589997
0.63328123 0.47454318 2.859
0.67171258 0.47621414 2.859
0.74439776 0.47621411 2.859
0.76779073 0.47287223 2.8589997
0.79452556 0.46869496 2.8590002
0.82072884 0.47302413 2.8589997
0.85467899 0.47287226 2.859
0.87974286 0.46618849 2.8589997
0.3508946 0.49703649 2.8589997
0.37536877 0.49921396 2.859
0.40281266 0.50271028 2.859
0.43109909 0.5046199 2.8589997
0.46618852 0.50629079 2.859
0.49236631 0.50406295 2.8589997
0.53469652 0.50461984 2.859
0.55391216 0.4921923 2.859
0.5827356 0.48749283 2.859
0.61509758 0.48859856 2.859
0.64063329 0.48373327 2.8589997
0.68675083 0.48122683 2.859
0.70250529 0.48552355 2.859
0.73329812 0.4826591 2.859
0.75442338 0.48122683 2.859
0.8070575 0.48373324 2.859
0.82021612 0.48310664 2.8589997
0.36342654 0.51130354 2.859
0.40531906 0.51201963 2.859
0.43360549 0.51380992 2.8589997
0.46067449 0.51380992 2.8589997
0.4937588 0.51130354 2.859
0.5213291 0.51130354 2.859
0.74432832 -1.1553835 2.9063342
0.7575807 -1.1527295 2.9080005
0.86422843 -1.1548541 2.9080005
0.88531858 -1.1536953 2.9079995
0.91521531 -1.1548543 2.9079993
0.94316524 -1.153682 2.8970628
0.96042329 -1.1499807 2.8829999
1.0160267 -1.1499805 2.8829999
1.0345434 -1.1529046 2.8980002
0.74089807 -1.122179 2.8829999
0.7616663 -1.1252425 2.9080005
0.86677784 -1.1370085 2.908
0.88717258 -1.1305683 2.9080005
0.91621965 -1.1251118 2.9079995
0.93874818 -1.126967 2.898385
1.0122355 -1.1247063 2.8829997
1.0280143 -1.1210027 2.888263
0.71779007 -1.0867949 2.8830001
0.73672068 -1.0929084 2.8936057
0.75906795 -1.1019551 2.908
0.89482057 -1.0834723 2.908
0.91776466 -1.0927026 2.9079998
0.93833941 -1.0946455 2.8950684
1.009287 -1.0921867 2.8829999
1.0306437 -1.0933266 2.903455
0.71610516 -1.0615206 2.8829997
0.73013288 -1.0595084 2.9080002
0.92569619 -1.0667599 2.9080002
0.94590676 -1.0637368 2.9005527
0.97152108 -1.0601315 2.8848522
1.0059171 -1.0598356 2.8829997
1.0288852 -1.0645139 2.9038339
0.71255994 -1.033875 2.8861246
0.72911316 -1.0359617 2.9080002
0.92711234 -1.0333352 2.908
0.94580764 -1.0350347 2.9079998
0.9728905 -1.0342517 2.8933659
1.0041749 -1.0355889 2.8856311
1.0273867 -1.0273868 2.908
0.70633769 -1.0045594 2.8946669
0.72503424 -1.0136203 2.908
0.92541277 -1.0171893 2.908
0.94920677 -1.0137901 2.9080005
0.97584885 -1.0061358 2.9015892
1.0134993 -1.0008622 2.8829999
1.0273867 -1.0095413 2.908
0.6874609 -0.97053313 2.8829999
0.70365793 -0.97496206 2.898
0.953848 -0.97267377 2.9080005
0.97677159 -0.97583133 2.9016044
1.0044658 -0.97180206 2.8909998
0.68493348 -0.94589061 2.8829997
0.7040236 -0.94777513 2.9069138
0.95141619 -0.95141625 2.9080007
0.97701198 -0.94642717 2.907305
1.0051129 -0.94648129 2.9035125
0.68619716 -0.91113853 2.8829999
0.69877368 -0.91340995 2.9041543
0.95855427 -0.90246868 2.908
0.97783369 -0.91425943 2.9079995
0.99991047 -0.91748154 2.9080005
0.65713173 -0.87449068 2.8829999
0.67869097 -0.88378084 2.8963931
0.69512188 -0.89567041 2.908
0.95623678 -0.8834644 2.9080002
0.97548926 -0.88771904 2.908
0.65713173 -0.85679877 2.8829999
0.67284358 -0.85591447 2.9008574
0.65713173 -0.82646954 2.8829999
0.66728884 -0.82473779 2.8972859
0.65522242 -0.79652482 2.8937144
0.66486961 -0.79488635 2.9080002
0.64939135 -0.76443976 2.8935263
0.66283011 -0.772452 2.908
0.64865887 -0.73399776 2.9035888
0.64468277 -0.70726568 2.9012692
0.62449551 -0.6739012 2.884923
0.63668561 -0.67513603 2.9024446
0.62056816 -0.64333701 2.8892498
0.63393754 -0.64753407 2.9080002
0.59647346 -0.60152829 2.8829999
0.61799759 -0.61232746 2.8982782
0.63223803 -0.62204063 2.908
0.5954625 -0.58535272 2.8829999
0.61054218 -0.58464587 2.902792
0.59182107 -0.55166656 2.8887691
0.60470504 -0.55524772 2.9080002
0.56614435 -0.51559567 2.8830001
0.58481556 -0.52434939 2.9003084
0.60164589 -0.52516538 2.908
0.56614429 -0.49284884 2.8829999
0.58535916 -0.49626783 2.9030001
0.60164583 -0.50986928 2.908
0.56247962 -0.46255738 2.8901429
0.57819176 -0.46755019 2.9080007
1.0197386 -0.45633304 2.908
1.0248374 -0.45633304 2.908
0.55902964 -0.43798614 2.8879998
0.57542396 -0.43885183 2.9080005
0.55909443 -0.4042491 2.8974738
0.57105362 -0.40789548 2.908
0.55453253 -0.37557554 2.9023547
0.57615232 -0.36200723 2.908
0.53581512 -0.34878534 2.8830001
0.55451131 -0.34577334 2.9033709
0.57615232 -0.35690853 2.908
0.53581512 -0.305819 2.8829999
0.54977947 -0.3156012 2.9033129
0.52854586 -0.28407854 2.8903525
0.54399139 -0.28552681 2.9080005
0.50548595 -0.24263328 2.8829999
0.52328235 -0.25241765 2.8898182
0.54046148 -0.25493467 2.908
0.50548601 -0.22494128 2.8829999
0.52217746 -0.22558121 2.8913338
0.54556024 -0.22944121 2.9080007
0.50548601 -0.19461212 2.8829999
0.52124381 -0.19937263 2.9040532
0.50087243 -0.16018066 2.8913333
0.51860994 -0.16497916 2.9080005
0.49475983 -0.13624832 2.8948421
0.51751733 -0.14786211 2.908
0.47515678 -0.090987474 2.8829999
0.49208388 -0.10397391 2.8960953
0.47543818 -0.070992678 2.892375
0.48657817 -0.073868953 2.9059172
0.47253367 -0.041858748 2.8939376
0.48981446 -0.046228159 2.9080007
0.47126722 -0.014590254 2.8939376
0.48522565 -0.016995644 2.908
0.46798846 0.010947076 2.896158
0.48437586 0 2.908
0.44735509 0.053076025 2.8829999
0.46222296 0.043183044 2.8968892
0.44555178 0.074371725 2.8913331
0.45888236 0.073931046 2.9080005
0.44106096 0.10419369 2.8948424
0.45633307 0.099424511 2.908
0.44176808 0.13477379 2.8939373
0.41955334 0.17439266 2.8829999
0.43631074 0.16422018 2.8993046
0.4126285 0.19635318 2.8844702
0.42731458 0.19697413 2.9052227
0.40914938 0.22583471 2.8879998
0.4257409 0.22689185 2.9080005
0.40609217 0.25409904 2.8852723
0.42464831 0.25274953 2.908
0.38922423 0.29318187 2.8830001
0.40765759 0.28299382 2.9036896
0.3805587 0.31881723 2.8829999
0.40301847 0.31257203 2.9080005
0.38037094 0.34555301 2.8876872
0.39514875 0.34416181 2.9080005
0.38200298 0.37574455 2.8829997
0.39769807 0.37475398 2.908
0.35889503 0.39933389 2.8829999
0.37579617 0.4058018 2.8865721
0.39842647 0.40607449 2.9080005
0.83363628 0.41809282 2.908
0.35889503 0.42460823 2.8829999
0.37650689 0.43605021 2.8919291
0.39387405 0.43338889 2.908
0.80559349 0.44613564 2.908
0.82744092 0.43853918 2.8958573
0.85178071 0.43553182 2.8917501
0.87916046 0.44577149 2.908
0.37725863 0.46679854 2.8938696
0.39955214 0.47232437 2.9080002
0.42930993 0.47723767 2.908
0.50986928 0.47927713 2.908
0.52298021 0.4778204 2.908
0.55748868 0.47774062 2.9038334
0.58438379 0.47264194 2.9038336
0.61431432 0.46959215 2.9007087
0.64554375 0.46752524 2.8971305
0.67656678 0.46911111 2.8970003
0.70283526 0.47300187 2.9080005
0.74064624 0.47404596 2.9033129
0.76504707 0.46810773 2.8960955
0.7942118 0.4591324 2.897584
0.82761192 0.46131903 2.8867035
0.85532755 0.4634029 2.892483
0.8824572 0.46093342 2.9017506
0.90501809 0.45888239 2.908
0.35889503 0.49284881 2.8829999
0.37475815 0.48983243 2.8901427
0.40677419 0.4922204 2.8987408
0.4354443 0.49526504 2.8978145
0.46672168 0.49967161 2.9010005
0.49529096 0.49474531 2.8967929
0.52353674 0.49493548 2.8913336
0.5495286 0.48909077 2.8967502
0.59015489 0.48147535 2.8829999
0.60658318 0.4852666 2.8829997
0.6520769 0.48021168 2.8830001
0.66218656 0.48021165 2.8829999
0.70736402 0.48338372 2.8885553
0.7315141 0.48303699 2.8923748
0.46251965 0.51054084 2.8829999
0.52065057 0.5105409 2.8829999
0.76966476 -1.1759245 2.9330001
0.85880202 -1.1750673 2.9330003
0.88451469 -1.1776388 2.9330001
1.0645031 -1.1750674 2.9330003
0.77395034 -1.1544973 2.9330003
0.78166407 -1.1467835 2.9330001
0.86236215 -1.153904 2.9330003
0.87680078 -1.1416409 2.9330001
1.0593605 -1.1565542 2.9330003
0.77652162 -1.1236422 2.9330003
0.78533727 -1.1229075 2.9330001
0.8646301 -1.1244993 2.9330001
0.88571453 -1.1214137 2.9329996
0.90919876 -1.1184995 2.9330003
1.0542179 -1.123642 2.9330001
0.7430951 -1.0850731 2.9330001
0.76337951 -1.093644 2.9329998
0.86761779 -1.0960928 2.9330003
0.88616753 -1.095542 2.9329996
0.91125578 -1.0958725 2.9330003
1.0490755 -1.0979295 2.9330001
1.0542179 -1.0953583 2.9330003
0.74438071 -1.0696455 2.9330003
0.75314635 -1.0668406 2.9330006
0.88825458 -1.0677754 2.9329994
0.91536981 -1.0670743 2.9329996
0.93079728 -1.0645031 2.9330003
1.0423901 -1.0634745 2.9330003
0.74286133 -1.0331804 2.9330006
0.75338012 -1.0413617 2.9330003
0.89137131 -1.0413616 2.9329998
0.91536981 -1.0362192 2.9329996
0.93593979 -1.0357049 2.9330003
1.0405046 -1.0393618 2.9330003
0.73538131 -1.0038754 2.9329996
0.89994216 -1.0105065 2.9330001
0.91517925 -1.0067924 2.9329996
0.94365364 -1.0053638 2.9329994
0.96422368 -1.0079353 2.9330003
1.0387903 -1.0062211 2.9330003
0.72876948 -0.97597808 2.9330001
0.89526725 -0.968665 2.9330006
0.91454679 -0.97234869 2.9329996
0.9410823 -0.97601604 2.9329994
1.033648 -0.97450876 2.9330003
0.71848452 -0.93887836 2.9330003
0.72583091 -0.94549024 2.9330003
0.89398766 -0.94541299 2.9329996
0.91536981 -0.94365388 2.9329996
0.94264072 -0.94264078 2.9329994
0.96722358 -0.93722552 2.9330003
1.02924 -0.94255167 2.9330003
0.71609688 -0.91408408 2.9330003
0.72509623 -0.92565477 2.9330001
0.89737093 -0.92565477 2.9330001
0.91817474 -0.92144734 2.9330006
0.94365364 -0.91536963 2.9329996
0.96450943 -0.91822666 2.9330003
1.0141063 -0.91176999 2.9330003
1.0233628 -0.92308354 2.9330001
0.7078886 -0.88609701 2.9329996
0.94736755 -0.88737142 2.9329996
0.97656578 -0.87628651 2.9330003
1.0075924 -0.88571459 2.9329996
0.68909854 -0.85108817 2.9330001
0.70242244 -0.85926944 2.9329998
0.94569284 -0.85685152 2.9329994
0.97450882 -0.85623074 2.9329994
1.0036795 -0.85844737 2.9329994
0.68469071 -0.82390624 2.9330001
0.69938362 -0.82233673 2.9330006
0.94743484 -0.83187944 2.9329998
0.97526509 -0.82598072 2.9329994
0.99662173 -0.82383275 2.9330001
0.68248683 -0.79341829 2.9329996
0.69938362 -0.80351973 2.9330003
0.97643727 -0.80544829 2.9330003
0.99801749 -0.79782641 2.9330001
0.67483979 -0.76436651 2.9329998
0.66705918 -0.73758531 2.9330003
0.6561864 -0.69835514 2.9330003
0.66801423 -0.70606887 2.9330003
0.65236634 -0.67697692 2.9330001
0.65012372 -0.64389849 2.9329996
0.64358729 -0.61556035 2.9329996
0.62653118 -0.57939136 2.9330003
0.63620406 -0.58514607 2.9330001
0.6210357 -0.55448532 2.9329998
0.6333878 -0.55710703 2.9330003
0.61831319 -0.53089023 2.9329998
0.63253075 -0.53996527 2.9330001
0.90765589 -0.51682389 2.9330001
1.0156491 -0.51682389 2.9330001
0.60879606 -0.49526492 2.9330003
0.98479384 -0.48853999 2.9330003
1.0072497 -0.49436823 2.9329996
1.0799305 -0.48854002 2.9330001
1.0871301 -0.48751149 2.9330003
0.59419554 -0.46422991 2.9330006
0.60167563 -0.46796989 2.9330003
0.98736507 -0.47825497 2.9330001
1.0079353 -0.47105542 2.9329996
1.0345831 -0.46446368 2.9329998
1.0694313 -0.4611133 2.9329996
1.0941714 -0.46381643 2.9329996
0.58881932 -0.43270689 2.9330001
0.60424691 -0.44482857 2.9330001
0.97707999 -0.42425847 2.9330003
1.006353 -0.42603856 2.9330003
1.0351604 -0.43681225 2.9329998
1.0678654 -0.4386971 2.9329996
1.095592 -0.43851718 2.9329998
1.1153569 -0.43482918 2.9330003
0.58669525 -0.40178785 2.9329996
0.60167563 -0.39597458 2.9330001
0.98222256 -0.41654468 2.9330001
1.0130779 -0.41140217 2.9330003
1.0285053 -0.40368834 2.9329998
1.1262133 -0.40934515 2.9330003
1.1416409 -0.39083204 2.9330001
0.58694935 -0.376807 2.9329998
0.60167563 -0.38311824 2.9330001
1.1262134 -0.37454742 2.9329998
1.1416409 -0.38311824 2.9330001
0.58289427 -0.3445493 2.9329996
1.0986307 -0.35249686 2.9330006
1.1133571 -0.34969181 2.9330003
1.1442122 -0.33683547 2.9330001
