# .PCD v0.7 - Point Cloud Data file format
VERSION 0.7
FIELDS x y z
SIZE 4 4 4
TYPE F F F
COUNT 1 1 1
WIDTH 1572
HEIGHT 1
VIEWPOINT 0 0 0 1 0 0 0
POINTS 1572
DATA ascii
-1.3777344 0.46106356 2.723
0.83399618 0.47809145 2.7065001
0.8543061 0.47787187 2.7119999
0.91963261 0.4756504 2.7083335
0.94820076 0.4742626 2.7088573
0.97200465 0.47549111 2.7119999
1.0045922 0.47277129 2.7093809
1.0229228 0.47357532 2.701
1.0735934 0.47159281 2.7141998
1.0945988 0.47560781 2.7156668
1.1268187 0.47765225 2.7175
1.1434512 0.47743264 2.723
1.1870435 0.47074243 2.7048264
1.2139975 0.46978515 2.712846
1.2423768 0.47142804 2.7076957
-1.3936489 0.49472603 2.7174995
-1.3756425 0.49621168 2.723
0.2068346 0.50640213 2.7119999
0.22385332 0.50374585 2.7165294
0.25643116 0.50266469 2.7120001
0.27452379 0.5060786 2.723
0.32455218 0.5063374 2.7141998
0.34207758 0.5049457 2.715143
0.37962103 0.50266278 2.7098
0.39863908 0.50103253 2.7163999
0.4425543 0.50444311 2.7142003
0.46574607 0.50494468 2.7030003
0.49418664 0.50249672 2.7101667
0.52614331 0.49935716 2.7048824
0.55274057 0.49540037 2.7050002
0.58300197 0.49060073 2.7107778
0.6167962 0.4872334 2.7060771
0.64520597 0.48999304 2.7098
0.67595905 0.48900533 2.7149999
0.70401162 0.48777154 2.7087646
0.73767167 0.48908138 2.7109001
0.76477087 0.48688042 2.70925
0.79226315 0.48887116 2.7037501
0.82620454 0.48268691 2.7104287
0.8550666 0.4846254 2.701
0.88739479 0.48916265 2.7119999
0.9058255 0.48658627 2.7119999
0.95283359 0.4849411 2.701
0.97242254 0.48429957 2.7054002
0.99876118 0.48276687 2.7083335
1.100469 0.48287883 2.7054002
1.1220828 0.48241696 2.7175
1.1630301 0.482375 2.7185998
1.1782702 0.4827109 2.7098002
1.2723579 0.482207 2.723
-1.389877 0.51210815 2.7119999
-1.3732049 0.52356714 2.7147501
0.1927375 0.52516323 2.7156665
0.26993793 0.51146132 2.701
0.28734028 0.5131923 2.7120001
0.30789986 0.51204729 2.7142
0.35807449 0.51085293 2.723
0.36523598 0.51085293 2.723
-1.3867899 0.56130701 2.7094617
-1.3737055 0.55627829 2.7179229
0.19255984 0.54444242 2.7119999
-1.3870374 0.58141279 2.7107778
-1.3745328 0.58621109 2.7167141
-1.3887596 0.62354082 2.701
-1.3728633 0.61477 2.7136662
-1.3933979 0.64861864 2.7143569
-1.374997 0.64289171 2.7202499
-1.3925618 0.6751672 2.7148941
-1.3717394 0.67619544 2.7229998
-1.3885671 0.70436287 2.7116661
-1.3781891 0.70660037 2.7229998
-1.3881861 0.73767662 2.7106245
-1.376498 0.73554474 2.7229998
-1.3910707 0.76474762 2.7091706
-1.3730044 0.76924789 2.7190711
-1.3889723 0.79419994 2.7050002
-1.3733464 0.79275155 2.7163329
-1.3876272 0.82333851 2.7083333
-1.377045 0.82481778 2.7165294
-1.3862313 0.85565978 2.714
-1.3773932 0.84028149 2.723
-1.4112544 0.89979309 2.701
-1.396858 0.88602132 2.7135706
-1.3797804 0.88086325 2.723
-1.4193729 0.92008919 2.701
-1.3993877 0.9140718 2.7122967
-1.4216855 0.94464356 2.7049479
-1.4025602 0.9421162 2.7186
-1.4442339 0.97634983 2.723
-1.4246435 0.97508609 2.713434
-1.4019159 0.98177522 2.7229998
-1.4442339 1.0121573 2.723
-1.4255277 1.0044438 2.7218418
-1.4006681 1.0008183 2.7229998
-1.4442339 1.0217059 2.723
-1.4361272 -1.082508 2.744
-1.2388701 -1.0849136 2.7439997
-1.2220314 -1.0849136 2.744
-1.1129786 -1.0857154 2.7440002
-1.0993469 -1.0849136 2.7439997
-1.4543409 -1.0598269 2.7439997
-1.4361272 -1.0656689 2.744
-1.267737 -1.0632633 2.7439997
-1.2460868 -1.0684931 2.7439997
-1.2155612 -1.0650882 2.7440004
-1.1865491 -1.059655 2.7439997
-1.1113749 -1.0728856 2.7440002
-1.1009507 -1.064867 2.7439997
-1.4433439 -1.0488299 2.744
-1.428309 -1.0368022 2.7439997
-1.4024491 -1.0263779 2.744
-1.2629259 -1.0416132 2.7439997
-1.2451247 -1.0375236 2.7439997
-1.2086105 -1.0387011 2.7439997
-1.1860162 -1.0370083 2.7440009
-1.1632665 -1.033709 2.744
-1.1113749 -1.0247742 2.744
-1.096741 -1.0345972 2.744
-1.4202504 -1.0045674 2.744
-1.3962228 -1.0092088 2.7440009
-1.367053 -1.0055296 2.7439997
-1.3286165 -1.0114511 2.744
-1.2405885 -1.0007186 2.744
-1.2162579 -0.99879402 2.744
-1.1819383 -1.007935 2.744
-1.1618919 -1.0103406 2.7439997
-1.0927985 -1.0069999 2.7440009
-1.390765 -0.97322637 2.7440004
-1.369974 -0.9728139 2.7439997
-1.2364646 -0.97425717 2.7439997
-1.2172202 -0.97551721 2.7439997
-1.1799335 -0.97094953 2.7439997
-1.1575619 -0.97185165 2.7439997
-1.1226705 -0.97185177 2.7439997
-1.098087 -0.97597551 2.7439997
-1.3912232 -0.95340884 2.744
-1.3638333 -0.94855529 2.7439997
-1.3086319 -0.93576807 2.744
-1.2351525 -0.94823331 2.7439997
-1.2148919 -0.94469202 2.7440004
-1.1878722 -0.94490916 2.7440007
-1.1564794 -0.94554049 2.7440007
-1.1153113 -0.94998264 2.7439997
-1.1023538 -0.94418746 2.7439997
-1.3888177 -0.91155183 2.744
-1.3654636 -0.91592199 2.7440007
-1.267737 -0.90690106 2.7439997
-1.2340591 -0.92855126 2.744
-1.2158729 -0.92046845 2.744
-1.1849452 -0.921134 2.744
-1.1552767 -0.91592199 2.7440012
-1.1219995 -0.91231364 2.744
-1.1013151 -0.92024124 2.7439997
-1.3872139 -0.8948732 2.7439997
-1.3627919 -0.88593823 2.7440009
-1.2725482 -0.88765657 2.744
-1.2356628 -0.88471645 2.7439997
-1.2177752 -0.8808099 2.7440002
-1.1854665 -0.87659085 2.7439997
-1.153254 -0.88546973 2.7440014
-1.1295736 -0.88483262 2.7439997
-1.096504 -0.87781554 2.7439997
-1.3579462 -0.85421908 2.7439997
-1.3447155 -0.85157293 2.7439997
-1.2328562 -0.85638404 2.7439997
-1.2172202 -0.8561992 2.7440002
-1.1844441 -0.85457993 2.7440007
-1.1621106 -0.85857099 2.7439997
-1.1252928 -0.85277587 2.7440004
-1.1005497 -0.8551814 2.7439997
-1.3625168 -0.82501525 2.744
-1.347121 -0.8347339 2.744
-1.2340591 -0.8299228 2.744
-1.2149411 -0.82498503 2.7439997
-1.186089 -0.82468706 2.7440009
-1.152871 -0.82210469 2.7439997
-1.1234025 -0.82511157 2.7440009
-1.1032327 -0.82640696 2.744
-1.3582628 -0.79687786 2.7439997
-1.3357666 -0.79441655 2.744
-1.3182542 -0.79223549 2.7440002
-1.2051921 -0.80346149 2.744
-1.19557 -0.80586702 2.744
-1.1458548 -0.79437375 2.7439997
-1.1234027 -0.79624474 2.7440009
-1.3567433 -0.76674485 2.7439997
-1.3373529 -0.76745063 2.7440009
-1.3163297 -0.77555686 2.744
-1.2821705 -0.75534999 2.744
-1.152938 -0.76189834 2.7440009
-1.1234026 -0.76497245 2.7440014
-1.1045017 -0.76703423 2.744
-1.3563998 -0.73541808 2.744
-1.3449827 -0.73664004 2.7439997
-1.2821705 -0.72888863 2.744
-1.1536845 -0.73553932 2.7440009
-1.1228367 -0.7341243 2.7440009
-1.103677 -0.73754877 2.7439997
-1.3592756 -0.70470637 2.7439997
-1.3461589 -0.70435184 2.744
-1.1476434 -0.71167964 2.744
-1.1270742 -0.70749164 2.7439997
-1.1065637 -0.71686083 2.744
-1.3553689 -0.67665344 2.744
-1.3455174 -0.67837167 2.7439997
-1.1137804 -0.66634381 2.744
-1.1065637 -0.66634381 2.744
-1.3576454 -0.64499432 2.7439997
-1.347121 -0.65431595 2.7440002
-1.1581743 -0.64556825 2.7439997
-1.1215804 -0.64629734 2.7440009
-1.1065637 -0.64469367 2.744
-1.3626006 -0.61268896 2.7439997
-1.3455174 -0.61021376 2.744
-1.1763253 -0.62063789 2.744
-1.1570808 -0.61823231 2.7439997
-1.1113749 -0.62544906 2.744
-1.1065637 -0.62544906 2.744
-1.3581179 -0.59383297 2.744
-1.3392481 -0.58499181 2.7439997
-1.1474584 -0.58936542 2.744
-1.3561419 -0.55448461 2.7439997
-1.3436846 -0.55431277 2.744
-1.3556331 -0.52996635 2.744
-1.3437904 -0.52811587 2.744
-1.3585476 -0.49334306 2.744
-1.347121 -0.49554807 2.744
-1.3601394 -0.46781322 2.7439997
-1.347121 -0.47389793 2.744
-1.3952324 -0.43540877 2.744
-1.3556331 -0.43448359 2.744
-1.3629577 -0.4059405 2.744
-1.361696 -0.37470335 2.7440009
-1.3471211 -0.37286386 2.744
-1.3659075 -0.34273687 2.7439997
-1.3648193 -0.31547371 2.7440004
-1.3600742 -0.28700343 2.7440002
-1.347121 -0.27423534 2.744
-1.3548189 -0.25402856 2.744
-1.3435929 -0.25146261 2.744
-1.3638455 -0.22474925 2.7439997
-1.3436846 -0.23162235 2.744
-1.365163 -0.19244586 2.7439997
-1.3615546 -0.16598456 2.7440007
-1.3447154 -0.17079569 2.744
-1.3554604 -0.1375988 2.744
-1.3447155 -0.1347121 2.744
-1.3570873 -0.10240868 2.744
-1.3464339 -0.10515792 2.744
-1.3409352 -0.071823537 2.744
-1.3807992 -0.043300319 2.744
-1.3639603 -0.043300316 2.7440007
-1.3437903 -0.048111457 2.744
-1.3832048 -0.016839013 2.744
-1.3639601 -0.016839014 2.7440009
-1.347121 -0.026461305 2.744
-1.3832047 0.0072167194 2.7439997
-1.3674761 0.012768043 2.7440002
-1.3654493 0.048111469 2.7439997
-1.3604852 0.075107351 2.7439997
-1.3652966 0.10424151 2.7440002
-1.3577743 0.12715173 2.744
-1.3425928 0.13782519 2.7439997
-1.3651628 0.17039478 2.744
-1.3429972 0.16323531 2.744
-1.3645263 0.19414391 2.7440009
-1.347121 0.19485143 2.744
-1.3807992 0.22131275 2.744
-1.3698022 0.2247493 2.7439997
-1.3807991 0.26701862 2.744
-1.3641551 0.25408059 2.7440012
-1.347121 0.25258517 2.744
-1.3687711 0.28546134 2.7439997
-1.3667506 0.31522629 2.744
-1.3807991 0.35361928 2.744
-1.3672147 0.3427234 2.7439997
-1.3807992 0.37286386 2.744
-1.3728951 0.37526947 2.744
-1.3807991 0.4041363 2.7440002
-1.3692523 0.40574005 2.744
-1.3807991 0.44262546 2.7440002
-1.3676316 0.43781435 2.7439997
-1.3836859 0.46812448 2.7439997
-1.3711768 0.46243602 2.7439997
0.92614567 0.47630349 2.744
0.94490921 0.47437903 2.744
0.97618169 0.46956784 2.7439997
1.0019213 0.47028959 2.744
1.0271797 0.47149235 2.744
1.0985451 0.47309607 2.7440002
1.1246054 0.47028956 2.7439997
1.149864 0.47389793 2.7439997
1.1915607 0.47229421 2.744
1.2268423 0.46908677 2.744
1.2388701 0.46146917 2.744
-1.3827235 0.48496357 2.744
-1.3706703 0.4990932 2.7439997
0.20086537 0.50577182 2.7439997
0.22371832 0.5003593 2.744
0.25499076 0.5003593 2.744
0.28818765 0.5070948 2.7439997
0.31496972 0.50420821 2.744
0.34307176 0.49924895 2.744
0.37595674 0.5044831 2.744
0.41032207 0.50242114 2.744
0.43492761 0.50805706 2.744
0.4690868 0.5051704 2.744
0.49073693 0.5051704 2.744
0.52991343 0.49829733 2.744
0.55568743 0.4955481 2.744
0.58455431 0.49314252 2.744
0.61101562 0.48953417 2.744
0.64469367 0.48688802 2.744
0.67487264 0.48811263 2.7439997
0.70586401 0.48386389 2.744
0.7336998 0.48833141 2.744
0.79865032 0.49073693 2.744
0.82463044 0.48592576 2.744
0.86600637 0.48111466 2.744
0.89006203 0.48512396 2.744
0.91068131 0.48317659 2.744
0.99831283 0.48111466 2.744
1.1626937 0.48271835 2.7440002
1.1811364 0.48111466 2.744
-1.3807991 0.5388484 2.744
-1.3683704 0.52521694 2.744
0.174805 0.52601868 2.7439997
0.18557279 0.51960385 2.744
-1.3807991 0.54606509 2.744
-1.3696733 0.55508602 2.7439997
-1.3667841 0.58507723 2.7439997
-1.3667839 0.61247993 2.7439997
-1.3807991 0.64950478 2.744
-1.3673677 0.64208758 2.744
-1.3856103 0.66874933 2.7440002
-1.3685524 0.67662221 2.7439997
-1.3827237 0.70290852 2.7439997
-1.3672568 0.70527846 2.7440002
-1.3807991 0.72888863 2.744
-1.3711768 0.7336998 2.7439997
-1.3807991 0.75534999 2.7440002
-1.3639601 0.76587433 2.7440007
-1.3628668 0.79580742 2.7439997
-1.3807992 0.82511163 2.744
-1.3714598 0.82440424 2.7439997
0.65912706 0.83713949 2.744
0.66634381 0.83713949 2.744
-1.3849229 0.85672778 2.744
-1.3694273 0.85310364 2.7439997
0.65912706 0.8419506 2.744
0.66634381 0.8419506 2.744
-1.3872836 0.88713342 2.7439997
-1.3714174 0.88573211 2.7439997
-1.3909189 0.91793358 2.7440004
-1.367846 0.91726351 2.7440002
-1.3934504 0.94405395 2.7440002
-1.3663657 0.94146538 2.7439997
-1.4144772 0.97666276 2.744
-1.4002968 0.97818196 2.7439997
-1.4144771 1.0091379 2.744
-1.3971034 1.001253 2.7439997
-1.4495986 1.0353588 2.7439997
-1.427307 1.0376039 2.744
-1.4072604 1.0295854 2.744
-1.4457496 1.0680745 2.7439997
-1.4385328 1.0632633 2.7440002
-1.4832045 -1.0952157 2.7816665
-1.4547918 -1.0903494 2.7715833
-1.4280806 -1.0886505 2.7801998
-1.3939205 -1.0891937 2.7890005
-1.3703415 -1.096499 2.789
-1.3275189 -1.0945982 2.7890005
-1.3049496 -1.0914252 2.7801998
-1.2745105 -1.0915815 2.7669995
-1.09454 -1.0873827 2.7708824
-1.4772736 -1.077027 2.767
-1.4459016 -1.0684071 2.781667
-1.4243072 -1.0661093 2.7816668
-1.3974037 -1.0637094 2.788291
-1.368698 -1.0622923 2.7848754
-1.3325378 -1.0605969 2.7890005
-1.2992125 -1.0641239 2.7827144
-1.2807889 -1.0689414 2.767
-1.24602 -1.0665156 2.7669995
-1.2114823 -1.0694033 2.767
-1.1012061 -1.0637922 2.7752502
-1.4239075 -1.0416808 2.7669997
-1.3957081 -1.0388216 2.7669995
-1.3663607 -1.0347047 2.7795713
-1.3327618 -1.0393476 2.7843688
-1.3060338 -1.0261856 2.7841115
-1.2716075 -1.0293185 2.7692001
-1.2418405 -1.0335584 2.7702348
-1.2211822 -1.0303599 2.770143
-1.1821423 -1.0382152 2.767
-1.094739 -1.0369442 2.7853332
-1.363392 -1.0046034 2.7789998
-1.3353739 -1.0053364 2.778846
-1.3084033 -1.0061283 2.7787676
-1.2749892 -1.0039252 2.7866848
-1.2456157 -1.0107235 2.7669992
-1.2130417 -1.0065074 2.7669992
-1.1973435 -1.0091065 2.767
-1.0934952 -1.0015138 2.7780001
-1.3650377 -0.97581434 2.7761033
-1.3341197 -0.97311932 2.7890003
-1.3009458 -0.97381437 2.7783549
-1.2739769 -0.9717142 2.774652
-1.2502246 -0.97417587 2.767
-1.2135614 -0.97907352 2.7669992
-1.1955416 -0.9848491 2.767
-1.1028844 -0.97240937 2.7792222
-1.3605601 -0.9430126 2.7749994
-1.3364853 -0.94103402 2.7745261
-1.3033867 -0.94544315 2.773844
-1.2707267 -0.94298267 2.7669992
-1.2513947 -0.94318354 2.7669995
-1.2258055 -0.95412302 2.767
-1.0987003 -0.94401187 2.7789171
-1.3594812 -0.91780221 2.774857
-1.3353631 -0.91797936 2.7835004
-1.3012692 -0.9152289 2.774652
-1.2721257 -0.91450268 2.7669992
-1.2483052 -0.91608483 2.7669992
-1.2150879 -0.91131634 2.7703843
-1.1902281 -0.90916616 2.7669997
-1.1188668 -0.90978867 2.769588
-1.1006662 -0.9147107 2.7802002
-1.3572874 -0.88450676 2.7718885
-1.3370838 -0.88643813 2.7822313
-1.3003701 -0.88217902 2.7786109
-1.2752025 -0.88384378 2.7762632
-1.2553186 -0.88296813 2.767
-1.2152941 -0.8950969 2.767
-1.1842005 -0.89090699 2.7670002
-1.1522249 -0.87326515 2.767
-1.1206903 -0.88689554 2.7669992
-1.09509 -0.88770586 2.7754612
-1.35552 -0.8430776 2.7834997
-1.3445454 -0.85309714 2.7779999
-1.3023823 -0.85510623 2.7890003
-1.2732052 -0.85315031 2.7890007
-1.2483755 -0.85706544 2.7724996
-1.2031653 -0.84415632 2.767
-1.1740565 -0.85628498 2.767
-1.1593289 -0.85541886 2.7669992
-1.1271589 -0.86275375 2.767
-1.0998968 -0.85693455 2.7801998
-1.3575435 -0.82685506 2.7732856
-1.3369912 -0.82460499 2.7801995
-1.3030285 -0.82110959 2.7735994
-1.2749485 -0.82361925 2.7816668
-1.2463601 -0.82112449 2.7837203
-1.2254822 -0.81698799 2.767
-1.1824214 -0.8204124 2.7679994
-1.1610546 -0.82688504 2.7669992
-1.1124564 -0.81624544 2.77525
-1.1040757 -0.82533222 2.7747643
-1.3296667 -0.7972846 2.7772665
-1.303701 -0.7935431 2.7777555
-1.2714119 -0.7927745 2.7890005
-1.2435311 -0.79380727 2.7775221
-1.2141201 -0.79172909 2.766999
-1.1861855 -0.79321581 2.766999
-1.1659707 -0.79079008 2.767
-1.1134132 -0.7956416 2.767
-1.1025766 -0.79159164 2.7757998
-1.3338746 -0.76485372 2.7820859
-1.3035966 -0.76534283 2.7775595
-1.2744385 -0.76448876 2.7827146
-1.2455509 -0.76472217 2.7819288
-1.2153571 -0.76380855 2.7675936
-1.1910367 -0.76410711 2.7669992
-1.1692051 -0.76814997 2.767
-1.1124468 -0.76105422 2.7706668
-1.1005671 -0.76575387 2.7740395
-1.3592139 -0.73212767 2.7780001
-1.3349968 -0.7361064 2.781667
-1.3014674 -0.73461366 2.7846007
-1.2759507 -0.73410755 2.7856672
-1.2457989 -0.73632967 2.7877066
-1.2155837 -0.73999941 2.7830772
-1.1890328 -0.73545879 2.7759631
-1.1497992 -0.7325725 2.767
-1.1116532 -0.73190111 2.7767777
-1.1048954 -0.73512453 2.7750001
-1.3577293 -0.70928127 2.7748573
-1.3404452 -0.70366484 2.7831337
-1.3053163 -0.71459883 2.7890003
-1.2714121 -0.71557683 2.789
-1.2447208 -0.70742673 2.7890005
-1.2112035 -0.70019352 2.7890003
-1.1858059 -0.70451927 2.779
-1.1568789 -0.70209992 2.7677848
-1.1272036 -0.70703012 2.781667
-1.1039982 -0.7162413 2.7714002
-1.3560377 -0.67328173 2.7838237
-1.3469192 -0.67931473 2.7860665
-1.2362038 -0.66651338 2.7889998
-1.2144574 -0.672813 2.7890003
-1.1871419 -0.67738163 2.7816668
-1.1560503 -0.67768472 2.7709479
-1.12116 -0.67739147 2.7708254
-1.1008191 -0.67324597 2.7769997
-1.3601383 -0.64171237 2.7779996
-1.2983073 -0.63815111 2.789
-1.2678262 -0.64190018 2.7890003
-1.2434303 -0.64983267 2.7890005
-1.2146147 -0.6435985 2.7869053
-1.1861852 -0.64244699 2.7669992
-1.1557755 -0.64410937 2.7676458
-1.1176138 -0.64102173 2.7721763
-1.105081 -0.64328456 2.7725
-1.3592694 -0.62101007 2.7725
-1.3395624 -0.61008841 2.7814136
-1.3026153 -0.61335158 2.7890005
-1.2763022 -0.62103587 2.7890003
-1.2078416 -0.62348092 2.789
-1.1832542 -0.61417609 2.7835004
-1.1511223 -0.61304975 2.766999
-1.1221101 -0.61314631 2.7686915
-1.103748 -0.6158762 2.7779996
-1.3335316 -0.58394027 2.7814739
-1.3105326 -0.59658569 2.7890003
-1.2396268 -0.59414065 2.789
-1.2029514 -0.57458049 2.789
-1.1842803 -0.58035976 2.7890007
-1.1548147 -0.58515978 2.7790649
-1.125639 -0.58664739 2.7779999
-1.1061358 -0.59673119 2.767
-1.3345338 -0.55588412 2.7744999
-1.2763022 -0.54279518 2.789
-1.2078415 -0.55991036 2.789
-1.1866512 -0.5595029 2.7890005
-1.1543493 -0.55603212 2.7794666
-1.1244799 -0.55537474 2.7785499
-1.1002605 -0.54646271 2.7889998
-1.3540519 -0.51992953 2.7779999
-1.3410125 -0.52748519 2.7740965
-1.2773889 -0.53573179 2.7889998
-1.1471676 -0.53100628 2.785857
-1.1226043 -0.52744049 2.7705476
-1.0997374 -0.52555496 2.7820859
-1.3556211 -0.49822247 2.776778
-1.3480464 -0.49173462 2.7767777
-1.1469382 -0.49345016 2.7889998
-1.1199057 -0.49488193 2.7718287
-1.1033176 -0.49979383 2.7786467
-1.3610814 -0.46276146 2.78075
-1.3467457 -0.47489905 2.7779999
-1.2699451 -0.46846643 2.7889998
-1.254297 -0.46699944 2.789
-1.153073 -0.46577683 2.7890005
-1.1202092 -0.46383148 2.773139
-1.1053146 -0.47044444 2.7853334
-1.3578981 -0.43476367 2.7810802
-1.3496529 -0.42787907 2.789
-1.1506492 -0.4339385 2.7890005
-1.1269227 -0.43474853 2.789001
-1.1027055 -0.43276912 2.789
-1.3591034 -0.40499344 2.7783794
-1.3484304 -0.40220633 2.7889998
-1.1778492 -0.40130982 2.7890003
-1.1551732 -0.40243801 2.7821252
-1.122165 -0.40344891 2.7759187
-1.1041744 -0.39286765 2.7834997
-1.3553973 -0.37541252 2.78075
-1.3487095 -0.36628622 2.767
-1.1873034 -0.38044566 2.789
-1.155861 -0.37992129 2.786412
-1.1230464 -0.3761301 2.7756839
-1.103714 -0.3741504 2.780895
-1.3612424 -0.34562716 2.7738271
-1.1736112 -0.33252317 2.789
-1.1520951 -0.33594617 2.7889998
-1.1240007 -0.3449963 2.7869544
-1.1047714 -0.34842238 2.7758
-1.3589338 -0.31589794 2.773695
-1.3466259 -0.30509812 2.7816665
-1.1736112 -0.32274306 2.7890003
-1.1548332 -0.31941783 2.7890005
-1.1279709 -0.32070547 2.7890005
-1.3554146 -0.28466913 2.7690003
-1.3456926 -0.28585377 2.7770832
-1.1124856 -0.27384263 2.789
-1.1027055 -0.27628765 2.789
-1.3542156 -0.26661536 2.7816665
-1.3451142 -0.25424889 2.7752497
-1.1276449 -0.26112849 2.7890005
-1.3644586 -0.21740246 2.7779999
-1.3457164 -0.22657633 2.7808948
-1.3605911 -0.19677432 2.7737689
-1.3478514 -0.19737737 2.7795718
-1.1152184 -0.19243768 2.7890003
-1.1011496 -0.1880445 2.7889998
-1.3560666 -0.16306713 2.7764287
-1.3465567 -0.15943825 2.779
-1.1124856 -0.17604168 2.789
-1.1027055 -0.17359665 2.789
-1.3463383 -0.13557592 2.7780006
-1.3552939 -0.10350791 2.7805386
-1.3486944 -0.10449145 2.779222
-1.3540519 -0.085238293 2.7779999
-1.3454736 -0.07457938 2.778846
-1.3542156 -0.035770338 2.7816668
-1.3455082 -0.048976984 2.7732859
-1.3558906 -0.016233722 2.776778
-1.3456039 -0.011622308 2.7822309
-1.1100405 -0.017115163 2.789
-1.1051505 -0.017115163 2.789
-1.3631036 0.015035353 2.7800813
-1.345373 0.0056423615 2.7856152
-1.3628267 0.046287369 2.7795718
-1.3617777 0.076236621 2.7825837
-1.3603562 0.10482354 2.7809341
-1.3555055 0.12160827 2.7743335
-1.3459698 0.13524671 2.780895
-1.3540519 0.1753377 2.7779999
-1.3469725 0.16227384 2.7788463
-1.3560518 0.19675282 2.7752497
-1.3484652 0.19713779 2.778846
-1.3609916 0.22526792 2.7704368
-1.3477155 0.22265081 2.7797368
-1.3571159 0.25539237 2.7760587
-1.3487095 0.24499938 2.767
-1.3655508 0.28531569 2.774857
-1.3629444 0.31456366 2.7772667
-1.3634995 0.34866536 2.7752497
-1.3838832 0.38631368 2.789
-1.3665737 0.37265813 2.7759185
-1.3838832 0.39120373 2.789
-1.3751428 0.40473709 2.7812352
-1.3686067 0.43607697 2.7841113
1.1330936 0.44499427 2.789
-1.3701921 0.4678809 2.7850003
0.68460655 0.47922456 2.7890003
0.70690143 0.47613451 2.7823999
0.73595202 0.47922456 2.789
0.76529229 0.47922462 2.789
0.78240746 0.47922456 2.789
0.82886291 0.47922456 2.789
0.85450184 0.47624546 2.7801998
0.87531835 0.47922456 2.789
0.92205948 0.47135332 2.7799413
0.94498199 0.4701463 2.7794352
0.9749158 0.46575496 2.7801998
1.004784 0.46959245 2.7788463
1.0378503 0.46884415 2.7816665
1.0618736 0.46920004 2.7890005
1.1016959 0.46678293 2.7732859
1.1228616 0.46671399 2.7789164
1.1532928 0.47030583 2.7725
1.1888229 0.4750818 2.7829998
1.2160074 0.46732065 2.7860668
1.2371348 0.46636334 2.7736001
-1.38358 0.49292076 2.7835002
-1.3677934 0.49592999 2.7830002
0.19591469 0.50499898 2.7761667
0.2246071 0.4995743 2.7798336
0.25500831 0.50267667 2.7834997
0.28614464 0.50407416 2.779
0.31561753 0.49899492 2.7780001
0.34398535 0.49284673 2.7779994
0.37219533 0.50361174 2.7760594
0.40749773 0.49802709 2.7779999
0.43525973 0.50302678 2.7784777
0.46467242 0.50264692 2.7779994
0.49476457 0.50240302 2.7743335
0.52419567 0.49945512 2.773
0.55708104 0.49284911 2.7780001
0.58386993 0.49064979 2.7751055
0.61481798 0.48954692 2.7770002
0.64470798 0.48928869 2.7827141
0.67532182 0.48579621 2.777154
0.7029354 0.48198608 2.7697501
0.73625827 0.48596171 2.777267
0.76267457 0.48335803 2.7706666
0.79498172 0.48771244 2.7816665
0.82250953 0.48658362 2.7767775
0.854114 0.48084143 2.770143
0.88892335 0.48301381 2.7779999
0.9112528 0.48179829 2.7694447
1.0066807 0.48029584 2.767
1.0454924 0.48029584 2.767
1.0660303 0.48411462 2.7890003
1.182896 0.48254949 2.7706668
-1.3625988 0.52479124 2.7776203
0.17574285 0.52165651 2.7732859
0.18483172 0.51398915 2.7743335
-1.3703094 0.55186921 2.7785232
-1.3641795 0.58564222 2.7784071
-1.3624361 0.61201984 2.7771537
-1.362205 0.64665163 2.7731104
-1.3826698 0.67435473 2.767
-1.366081 0.67419279 2.7779999
-1.3644966 0.70506412 2.7775924
0.68705153 0.71394682 2.789
0.70620418 0.71129811 2.7890005
0.73568034 0.71503347 2.7889998
-1.3667864 0.73633051 2.7789998
0.68827403 0.73228449 2.789
0.70769882 0.73648673 2.7809515
0.73839688 0.73694807 2.7890007
0.75551224 0.74328709 2.789
-1.3630205 0.76165307 2.7764287
-1.3474069 0.77179861 2.7743332
0.67808646 0.76366234 2.789
0.70736593 0.76321381 2.7755556
0.73818457 0.76597625 2.7876258
0.75725865 0.76249808 2.7890003
-1.357113 0.79402715 2.7758
-1.3483566 0.79512423 2.784111
0.71201158 0.79087156 2.7758002
0.73761648 0.79482657 2.7816672
0.75462878 0.79487038 2.7835
-1.3661906 0.82512498 2.7773888
0.67538178 0.82928354 2.7691994
0.70878506 0.82967788 2.7890005
0.73644102 0.823973 2.7890007
0.75551218 0.82519537 2.7889998
-1.3656687 0.85352606 2.7803335
0.68004507 0.84986919 2.7732856
0.70562726 0.85288942 2.7772665
0.73214865 0.85086811 2.7890005
0.75795722 0.85398 2.7889998
-1.3659338 0.8860271 2.7774208
0.68505108 0.87843025 2.7889998
0.70779979 0.88445985 2.7793751
0.73525822 0.88659006 2.781667
-1.3663993 0.91307896 2.7780004
0.68505108 0.91621679 2.7889998
0.70589894 0.91594523 2.7783141
0.73663467 0.9175573 2.786067
0.75551218 0.92666382 2.789
-1.3875215 0.95412302 2.767
-1.3636932 0.94649071 2.7844169
-1.3374279 0.94377899 2.789
0.68705153 0.95600414 2.789
0.70741379 0.94527143 2.7769001
0.73894262 0.94575733 2.7876258
0.75401747 0.94191307 2.7834997
-1.4117787 0.97757185 2.767
-1.3957082 0.97453976 2.766999
-1.3687472 0.97429597 2.7748971
0.68705153 0.97067422 2.7889998
0.70639437 0.97232598 2.7827151
0.73858923 0.97606039 2.782053
0.75299305 0.97315872 2.77525
-1.4117787 1.0188093 2.767
-1.3934603 1.0088596 2.7801998
-1.3753256 0.9975695 2.789
0.68558455 1.0151737 2.789
0.71423441 1.0050484 2.7890003
0.73418152 1.0020319 2.7824001
-1.4177748 1.0441231 2.7710001
-1.4004822 1.0315826 2.78075
0.68460655 1.0244648 2.789
0.71435386 1.0353698 2.7868004
0.72654665 1.0378635 2.7860668
-1.4571149 1.0639783 2.766999
-1.4242098 1.0648626 2.7780001
-1.4034433 1.0586951 2.789
0.71569699 1.0633247 2.7795711
0.73023003 1.0636213 2.7802002
-1.4792391 1.1051505 2.789
-1.4536474 1.0931653 2.7761033
-1.4227698 1.0850601 2.785857
0.71405703 1.0907869 2.7831337
0.73238409 1.0876795 2.7829998
-1.471904 1.1124856 2.789
-1.4547889 1.1124856 2.789
-1.5037638 -1.1142644 2.812
-1.4224128 -1.1142645 2.812
-1.3928304 -1.1142644 2.812
-1.360783 -1.1142644 2.812
-1.345992 -1.1142644 2.812
-1.0994732 -1.1142644 2.812
-1.4221045 -1.1028628 2.812
-1.3860512 -1.1000896 2.812
-1.3630242 -1.0958877 2.8119991
-1.3447593 -1.0945429 2.812
-1.1044036 -1.0937212 2.812
-1.4100868 -1.0772865 2.812
-1.3805045 -1.0797517 2.812
-1.3593743 -1.0744693 2.812
-1.3300269 -1.0651953 2.812
-1.310863 -1.0544835 2.812
-1.1037873 -1.068042 2.812
-1.3706439 -1.0255176 2.812
-1.3229835 -1.0435957 2.812
-1.3013591 -1.0343404 2.812
-1.2868274 -1.0353785 2.812
-1.0982406 -1.036611 2.812
-1.3617073 -0.99593538 2.812
-1.331817 -0.99809247 2.812
-1.300386 -1.0113428 2.812
-1.1053897 -0.99692148 2.812
-1.3613309 -0.98333549 2.812
-1.1053897 -0.98015815 2.812
-1.1008819 -0.93958825 2.812
-1.3548665 -0.91606343 2.8120003
-1.3432528 -0.9148581 2.812
-1.1011168 -0.91869289 2.812
-1.3533874 -0.88418031 2.812
-1.337446 -0.87924993 2.8120003
-1.0994732 -0.87760651 2.812
-1.3533877 -0.8559128 2.812
-1.3363553 -0.86012608 2.8120003
-1.3073707 -0.86199349 2.812
-1.1026107 -0.85250634 2.8120003
-1.3509222 -0.83569825 2.812
-1.2966882 -0.81351161 2.812
-1.2843623 -0.81351161 2.812
-1.1044037 -0.82583743 2.812
-1.2917578 -0.79872048 2.812
-1.2868274 -0.80611598 2.812
-1.103171 -0.79995316 2.812
-1.3519082 -0.76026356 2.812
-1.339829 -0.75968826 2.812
-1.2950447 -0.76913822 2.812
-1.2745016 -0.75434709 2.812
-1.1035072 -0.76555246 2.8120003
-1.3571672 -0.74021351 2.8120003
-1.3416775 -0.73647457 2.812
-1.2695711 -0.73955601 2.812
-1.2391672 -0.72805184 2.812
-1.2209717 -0.73110402 2.812
-1.1142644 -0.74202114 2.812
-1.1062999 -0.73614275 2.812
-1.3509222 -0.69025224 2.812
-1.3335118 -0.70304054 2.8119991
-1.3029512 -0.7033112 2.8119988
-1.2754874 -0.70044172 2.8119993
-1.2438346 -0.70326841 2.8119998
-1.2189399 -0.70656037 2.812
-1.1207354 -0.70874113 2.812
-1.1041572 -0.70578289 2.812
-1.3538805 -0.66905165 2.812
-1.333666 -0.67299587 2.8119988
-1.3040839 -0.67299592 2.8119988
-1.2751176 -0.67453659 2.8119991
-1.2470559 -0.67743331 2.8120003
-1.2221848 -0.67655677 2.812
-1.103171 -0.66929811 2.812
-1.35715 -0.64587885 2.812
-1.3318583 -0.6437425 2.8119993
-1.3032622 -0.64569628 2.8119996
-1.2720363 -0.64259195 2.8120003
-1.2454125 -0.63937074 2.8119998
-1.2276629 -0.63108778 2.812
-1.1142644 -0.64587891 2.812
-1.1041137 -0.64413881 2.812
-1.3337959 -0.62070811 2.812
-1.3009613 -0.60742205 2.8120003
-1.273885 -0.61229074 2.8119991
-1.2446293 -0.61455655 2.8119988
-1.2163513 -0.61170864 2.8120472
-1.1980807 -0.60890114 2.812
-1.1159079 -0.60314906 2.812
-1.1034175 -0.61235243 2.8120003
-1.3262705 -0.58439416 2.812
-1.308398 -0.58404368 2.812
-1.2699232 -0.58178407 2.812
-1.2446293 -0.58352405 2.8119988
-1.2186596 -0.58800066 2.8120003
-1.1931503 -0.59246653 2.812
-1.122568 -0.58360052 2.812
-1.1044037 -0.58424926 2.812
-1.330379 -0.554667 2.812
-1.3001394 -0.55663908 2.812
-1.2730223 -0.55663919 2.8119993
-1.2450643 -0.55437696 2.8119988
-1.2183212 -0.54908782 2.812
-1.187946 -0.54781932 2.812
-1.1586376 -0.54234105 2.812
-1.1167296 -0.56452775 2.812
-1.1034175 -0.56058341 2.812
-1.3521549 -0.5164566 2.812
-1.3387035 -0.52497762 2.8120003
-1.2983316 -0.52722132 2.8120003
-1.2771721 -0.52364683 2.812
-1.2386194 -0.52672821 2.812
-1.215337 -0.52508461 2.8119988
-1.1857548 -0.52508467 2.8119988
-1.1625822 -0.52557772 2.812
-1.3547149 -0.49758846 2.812
-1.3379798 -0.49735141 2.812
-1.3047 -0.4850255 2.812
-1.2769666 -0.4917511 2.8120003
-1.2429641 -0.4933773 2.8119993
-1.2153369 -0.49550247 2.8119988
-1.1857548 -0.49550247 2.8119988
-1.1658093 -0.49841589 2.8120003
-1.1044037 -0.49550253 2.812
-1.3555442 -0.46437952 2.812
-1.3348588 -0.46440941 2.8119991
-1.3035272 -0.46599978 2.8119991
-1.2736049 -0.46211052 2.8120003
-1.2449194 -0.46592036 2.8119988
-1.2153369 -0.46592036 2.8119988
-1.1864798 -0.46621037 2.8119988
-1.1660333 -0.47824621 2.812
-1.1167295 -0.45605952 2.812
-1.1044036 -0.46592024 2.812
-1.3558525 -0.44032028 2.812
-1.3342021 -0.44158989 2.8120003
-1.3052342 -0.44340494 2.8120003
-1.2752059 -0.43880323 2.8119996
-1.2493566 -0.4427475 2.812
-1.2142166 -0.43566582 2.8119991
-1.186107 -0.43669024 2.8119988
-1.1668551 -0.44126838 2.812
-1.1182086 -0.43831021 2.812
-1.104075 -0.43683112 2.8120003
-1.3531137 -0.40648189 2.812
-1.3376482 -0.39860177 2.812
-1.3004584 -0.40110031 2.812
-1.2777554 -0.40645987 2.8119998
-1.2433505 -0.4087728 2.8120003
-1.2133648 -0.40823492 2.8119993
-1.1958895 -0.41031662 2.812
-1.1159079 -0.41168618 2.812
-1.1041137 -0.40748084 2.812
-1.3558525 -0.37717354 2.812
-1.3340181 -0.37752563 2.8119988
-1.3029786 -0.37725851 2.8119993
-1.2767521 -0.37299338 2.8120003
-1.2572451 -0.37224317 2.812
-1.2121674 -0.37916917 2.812
-1.1871244 -0.37470832 2.8119996
-1.161103 -0.37059969 2.812
-1.1019384 -0.37717354 2.812
-1.3587427 -0.34461609 2.8119993
-1.3403891 -0.34602252 2.8120003
-1.2942231 -0.35498688 2.812
-1.2732688 -0.34574232 2.8119991
-1.2484801 -0.33992186 2.812
-1.2088659 -0.33896315 2.812
-1.1869875 -0.34718046 2.8119988
-1.1626437 -0.35159722 2.812
-1.1142644 -0.34808436 2.812
-1.1044037 -0.34512612 2.812
-1.3567492 -0.3204743 2.8120003
-1.3445833 -0.31624824 2.812
-1.2671059 -0.32293946 2.812
-1.2480888 -0.32082644 2.812
-1.2139282 -0.31589612 2.8119996
-1.1872342 -0.31110656 2.8119993
-1.1571207 -0.3037869 2.812
-1.1248553 -0.30988315 2.8119996
-1.1044037 -0.31307873 2.812
-1.3516268 -0.28173563 2.812
-1.3443485 -0.28103128 2.812
-1.2079414 -0.28161132 2.812
-1.1857548 -0.28349644 2.8119988
-1.1567527 -0.2842215 2.8119988
-1.1274706 -0.28613776 2.8119996
-1.1037872 -0.28411278 2.812
-1.352155 -0.2563794 2.812
-1.3443485 -0.25309247 2.812
-1.2116884 -0.25361836 2.8119998
-1.1842756 -0.25325686 2.8119993
-1.1589901 -0.25250554 2.8119996
-1.1265901 -0.25243515 2.8119993
-1.1047118 -0.25545496 2.812
-1.3546201 -0.22309935 2.812
-1.3390313 -0.22447699 2.812
-1.215748 -0.22967319 2.812
-1.1854025 -0.22468418 2.8119988
-1.1561725 -0.22433202 2.8119988
-1.1265903 -0.22433199 2.8119988
-1.1051621 -0.22072901 2.812
-1.3538805 -0.19080546 2.812
-1.3415546 -0.20115924 2.812
-1.1854335 -0.19657183 2.8120003
-1.1562431 -0.19510187 2.8119988
-1.1336336 -0.19651061 2.812
-1.103171 -0.19844756 2.812
-1.3572613 -0.17080222 2.812
-1.3385962 -0.16516751 2.812
-1.1835139 -0.16718444 2.8120003
-1.1558825 -0.1651675 2.8119988
-1.1276686 -0.16378082 2.8119991
-1.1029536 -0.16415241 2.812
-1.3525656 -0.12901142 2.812
-1.3406134 -0.1425326 2.8120003
-1.1550521 -0.13551058 2.8119991
-1.1265901 -0.13558525 2.8119988
-1.1044036 -0.13558526 2.812
-1.3539565 -0.1065719 2.812
-1.3438007 -0.10244219 2.812
-1.1561725 -0.10600302 2.8119988
-1.1265901 -0.10600302 2.8119988
-1.1026109 -0.10510658 2.8120003
-1.3531138 -0.07998161 2.812
-1.3424703 -0.07501211 2.812
-1.2128718 -0.064094849 2.812
-1.1525472 -0.082076207 2.812
-1.126238 -0.076772943 2.8119988
-1.1019386 -0.076420784 2.812
-1.3542092 -0.043551631 2.812
-1.3368896 -0.047786698 2.812
-1.2105137 -0.048660636 2.8120003
-1.1837378 -0.039891202 2.8120003
-1.1561728 -0.041908175 2.812
-1.1249468 -0.045030747 2.8119993
-1.1019386 -0.046838548 2.812
-1.3558526 -0.024651868 2.812
-1.3418834 -0.013969392 2.812
-1.2054763 -0.02958224 2.812
-1.1849331 -0.027117055 2.812
-1.1532966 -0.020954084 2.812
-1.1278226 -0.017256306 2.8119991
-1.1019385 -0.017256308 2.812
-1.3574961 0.024651866 2.812
-1.3448963 0.013147663 2.812
-1.1223322 0.010981288 2.8120003
-1.1019386 0.014791119 2.8119996
-1.3582103 0.045873906 2.8120003
-1.343751 0.047062654 2.8120003
-1.1220706 0.048071139 2.812
-1.1019387 0.046838548 2.812
-1.3578694 0.075300239 2.8120003
-1.3435267 0.076420784 2.812
-1.148777 0.066560037 2.812
-1.1270832 0.065080926 2.812
-1.1002951 0.065738305 2.812
-1.3558524 0.106003 2.812
-1.3396527 0.10705952 2.812
-1.1167297 0.10600302 2.812
-1.1009525 0.11438464 2.812
-1.3525656 0.13065489 2.812
-1.3413514 0.1348602 2.812
-1.1438465 0.14791119 2.812
-1.1270834 0.13805045 2.812
-1.1024314 0.13016185 2.8120003
-1.3536116 0.16718449 2.8120003
-1.3407094 0.16974573 2.812
-1.1438465 0.16270232 2.812
-1.1302879 0.16640012 2.812
-1.109334 0.17009787 2.812
-1.3536117 0.19183636 2.8120003
-1.3430338 0.19031243 2.812
-1.1333696 0.1867379 2.812
-1.3521549 0.22679719 2.812
-1.345992 0.2194016 2.812
-1.0970081 0.22679719 2.812
-1.3566308 0.2556009 2.812
-1.345992 0.24405348 2.812
-1.3607831 0.28349647 2.8119993
-1.345992 0.29582238 2.812
-1.3583176 0.3130787 2.812
-1.3440198 0.3130787 2.812
-1.3612524 0.34371743 2.812
-1.3632481 0.37858227 2.812
-1.3812089 0.40499493 2.812
-1.3715401 0.41146207 2.8120003
-1.3627551 0.43683112 2.8119998
-1.345992 0.44373357 2.812
-1.3596872 0.46509862 2.8119996
-1.345992 0.46345511 2.812
0.68285668 0.47824621 2.812
0.7020852 0.47726011 2.812
0.73709083 0.47742447 2.812
0.76667303 0.47824621 2.812
0.7937901 0.47824621 2.812
0.85541975 0.47824621 2.812
0.88007164 0.47824621 2.812
0.92280149 0.47167239 2.812
0.94334477 0.46345508 2.812
0.97128356 0.46674201 2.812
1.0156569 0.46838546 2.812
1.0353783 0.46592027 2.812
1.0560859 0.46345511 2.812
1.109334 0.46345508 2.812
1.127823 0.45893559 2.812
1.1586378 0.46674201 2.812
1.1877269 0.47134373 2.812
1.2128718 0.4649722 2.812
-1.3578826 0.49303728 2.812
0.19580628 0.50360245 2.812
0.22609283 0.49867207 2.812
0.25528377 0.50015903 2.812
0.28349647 0.50092596 2.812
0.31122983 0.49611878 2.812
0.34512609 0.48975044 2.812
0.37766659 0.49846077 2.812
0.4079884 0.49611881 2.812
0.42647728 0.4955025 2.812
0.46838546 0.4967351 2.812
0.4909243 0.49726337 2.812
0.53001511 0.50043285 2.812
0.54973662 0.49426991 2.812
0.5842492 0.48646355 2.812
0.61242288 0.48669833 2.812
0.64012682 0.48728523 2.812
0.67135257 0.48646352 2.812
0.74202114 0.48317659 2.812
0.80266476 0.48416266 2.812
0.81745589 0.48514873 2.812
0.88993239 0.48317659 2.812
0.90965384 0.48317659 2.812
-1.3587526 0.52696997 2.812
0.18242382 0.51275879 2.812
-1.3824767 0.5630486 2.812
-1.3641355 0.55594897 2.8119998
-1.382148 0.57356679 2.812
-1.3649347 0.58308142 2.812
-1.3610909 0.61444783 2.812
-1.3610424 0.64510041 2.812
-1.3571498 0.67338508 2.812
-1.3649347 0.70348644 2.812
0.73709083 0.71736932 2.812
-1.3610567 0.73791248 2.812
-1.345992 0.72723007 2.812
0.68532193 0.73709083 2.812
0.69627833 0.73846036 2.812
0.73814732 0.73039967 2.812
0.76420784 0.74448639 2.812
-1.3584626 0.76565802 2.812
0.68187064 0.76716608 2.812
0.69477177 0.76831651 2.812
0.76667303 0.77899897 2.812
-1.3528944 0.79428315 2.812
-1.345992 0.79872054 2.812
0.68285668 0.78639454 2.812
0.70233166 0.79748791 2.812
0.76544046 0.7876271 2.812
-1.3585231 0.82645369 2.812
-1.345992 0.82830274 2.812
0.68532199 0.8233723 2.812
0.70381087 0.82213962 2.8119996
0.72969526 0.82583755 2.812
0.76420784 0.83569831 2.812
-1.3576454 0.85541987 2.8120003
-1.3440198 0.85344762 2.812
0.74612981 0.86117184 2.812
0.75681227 0.85131109 2.812
-1.3636001 0.88347608 2.812
0.68532193 0.89732796 2.812
0.69929123 0.89568448 2.812
0.74339074 0.87815422 2.812
0.7580449 0.8739087 2.812
-1.3586699 0.91493642 2.812
0.68532193 0.90965384 2.812
0.70257825 0.90780491 2.812
0.76174265 0.92444503 2.812
-1.3620155 0.94046891 2.812
-1.3429104 0.94293392 2.812
0.68285668 0.95649242 2.812
0.69518268 0.94627941 2.812
-1.3805045 0.9614228 2.812
-1.3607829 0.97251594 2.812
-1.3443484 0.96306628 2.812
0.68461764 0.9719879 2.812
0.73462564 0.98607463 2.812
-1.3837914 1.01237 2.812
-1.3706439 1.0027621 2.812
0.68532193 1.0033309 2.812
0.70059019 1.0035697 2.8119991
0.73832339 0.99470276 2.812
-1.389182 1.0351813 2.8119998
-1.3664719 1.0351889 2.8119998
0.68532193 1.030448 2.812
0.70280236 1.034706 2.8120003
0.74332631 1.0345085 2.812
0.75434709 1.0255176 2.812
-1.4150171 1.0707127 2.812
-1.3933233 1.065084 2.8119986
-1.3666097 1.0591336 2.8120003
0.68285668 1.0526347 2.812
0.70715642 1.0635519 2.812
0.74744463 1.0644677 2.812
0.75557965 1.069891 2.812
-1.4468404 1.0981286 2.8120003
-1.422637 1.0985767 2.8119991
-1.3956479 1.0955995 2.8119996
-1.3755741 1.0871472 2.812
0.70856512 1.0955994 2.812
0.74612987 1.0953646 2.812
0.75434709 1.0920777 2.812
-1.4914379 1.1216599 2.812
-1.4470646 1.1191949 2.812
-1.4256172 1.1189481 2.812
-1.3988174 1.1163775 2.812
-1.4415029 -1.1134368 2.835
-1.093554 -1.1184074 2.8349998
-1.0761565 -1.1208928 2.835
-1.0990767 -1.097972 2.8349993
-1.10217 -1.0680377 2.8349998
-1.1006548 -1.0360358 2.8349996
-1.1029429 -1.0087759 2.8349996
-1.1044896 -0.97525144 2.8349998
-1.0981933 -0.9494037 2.8349998
-1.0963944 -0.91354376 2.8349998
-1.0979033 -0.89099795 2.8349996
-1.1020043 -0.851978 2.8349998
-1.0982322 -0.82016551 2.8349996
-1.0979397 -0.79589671 2.8349996
-1.1068091 -0.76300251 2.835
-1.1051522 -0.73152131 2.835
-1.1022527 -0.7058394 2.835
-1.1018385 -0.67684364 2.835
-1.3536873 -0.64701945 2.835
-1.1034954 -0.63376427 2.835
-1.2998381 -0.60145473 2.835
-1.2874112 -0.60145473 2.835
-1.0992348 -0.61104107 2.8349998
-1.3271769 -0.57163048 2.835
-1.3017384 -0.58829701 2.8349996
-1.285423 -0.59051913 2.835
-1.1003323 -0.58789831 2.8349998
-1.3285972 -0.55316782 2.8349996
-1.2675284 -0.54180628 2.835
-1.2526163 -0.56417441 2.835
-1.1010102 -0.55075353 2.8349998
-1.3300766 -0.52523732 2.8349996
-1.3118129 -0.51785654 2.8349998
-1.2717345 -0.52479118 2.8349996
-1.2557231 -0.52503014 2.835
-1.0971043 -0.52334368 2.8349996
-1.3328933 -0.49483323 2.8349996
-1.3107115 -0.49924469 2.8349996
-1.2770556 -0.50411189 2.8349998
-1.2575871 -0.50701135 2.835
-1.0969713 -0.49551669 2.8349996
-1.3296622 -0.47221649 2.835
-1.3155787 -0.46890271 2.835
-1.2451602 -0.45233369 2.835
-1.1034954 -0.47221649 2.835
-1.3570011 -0.42748016 2.835
-1.3335677 -0.42890036 2.8349996
-1.3087856 -0.43369356 2.8349996
-1.2700138 -0.43307224 2.8349996
-1.249717 -0.43659315 2.8349996
-1.108466 -0.43245089 2.835
-1.3536873 -0.41588187 2.835
-1.3341811 -0.40985686 2.8349996
-1.3060514 -0.40801165 2.8349998
-1.2718508 -0.40327504 2.8349996
-1.2461164 -0.40358269 2.8349996
-1.1022527 -0.39641333 2.835
-1.3277292 -0.36672723 2.835
-1.3147502 -0.3628611 2.835
-1.2704064 -0.37698829 2.8349996
-1.2462904 -0.37460992 2.8349993
-1.2235024 -0.36641163 2.8350003
-1.1015072 -0.37727615 2.8349998
-1.3330352 -0.3459962 2.8349996
-1.3051636 -0.3443985 2.8349996
-1.2658715 -0.34960589 2.835
-1.2414323 -0.34753478 2.8349996
-1.2232894 -0.35192555 2.8349998
-1.1034955 -0.34546363 2.835
-1.3530246 -0.31116581 2.835
-1.3375504 -0.31661198 2.8349996
-1.3023235 -0.31207347 2.8349996
-1.2768484 -0.31129003 2.8349996
-1.245906 -0.31042016 2.8349996
-1.2252775 -0.30569804 2.835
-1.1010101 -0.30569804 2.835
-1.3520305 -0.2932713 2.835
-1.343083 -0.28432402 2.8349998
-1.2994828 -0.2875905 2.8349996
-1.2749844 -0.28581518 2.8349993
-1.2451607 -0.28581524 2.8349993
-1.2263427 -0.2904309 2.8350003
-1.0991875 -0.28366128 2.8349998
-1.3520305 -0.25847641 2.835
-1.3375325 -0.25288439 2.8349996
-1.3023232 -0.25350568 2.8349993
-1.2757154 -0.25569868 2.8349993
-1.2451606 -0.2563017 2.8349993
-1.2068861 -0.25748226 2.835
-1.1979387 -0.25599104 2.835
-1.1134368 -0.24356431 2.835
-1.1003001 -0.25812137 2.8349998
-1.3553442 -0.22368149 2.835
-1.332796 -0.22865219 2.8349996
-1.3063 -0.23461702 2.8349998
-1.2692683 -0.22740951 2.8349996
-1.246714 -0.2255455 2.8349993
-1.2186986 -0.22280432 2.8349996
-1.1159222 -0.23859359 2.835
-1.1056257 -0.23220271 2.8350003
-1.3540187 -0.18789247 2.835
-1.3385384 -0.1952775 2.8349996
-1.2750645 -0.19546072 2.8349993
-1.2434399 -0.19710737 2.8349996
-1.2178216 -0.19634269 2.8349996
-1.185867 -0.19030681 2.8350003
-1.1631438 -0.1839159 2.835
-1.0992894 -0.19271022 2.8349998
-1.3309048 -0.16527575 2.8349996
-1.3172355 -0.1590624 2.835
-1.2721441 -0.16793866 2.8349996
-1.2451607 -0.16651841 2.8349993
-1.2168896 -0.16589712 2.8349993
-1.1872872 -0.1611927 2.8350003
-1.1631438 -0.17894518 2.835
-1.104738 -0.16279042 2.835
-1.3540187 -0.12824406 2.835
-1.3385803 -0.13537849 2.8349996
-1.3037437 -0.13030337 2.8349998
-1.2737417 -0.1354516 2.8349993
-1.2451605 -0.13669424 2.8349993
-1.2153364 -0.13669427 2.8349993
-1.1891022 -0.1367863 2.8349993
-1.1034955 -0.13669425 2.835
-1.3536873 -0.1176399 2.835
-1.334988 -0.10651501 2.8349993
-1.3084239 -0.10393282 2.8349996
-1.2722068 -0.11315652 2.8349996
-1.2448056 -0.10722512 2.8349993
-1.2152654 -0.10679904 2.8349993
-1.1904829 -0.10687006 2.8349996
-1.0985247 -0.10509481 2.8350003
-1.3337507 -0.077607036 2.8349993
-1.3044075 -0.075843252 2.8349993
-1.2700138 -0.074560501 2.835
-1.2430179 -0.077474363 2.8349993
-1.2147149 -0.078599177 2.8349993
-1.186491 -0.076066777 2.8349993
-1.1613364 -0.070041694 2.8349998
-1.0985247 -0.074560493 2.835
-1.3545157 -0.03728025 2.835
-1.3342319 -0.04810356 2.8349993
-1.3076491 -0.048819382 2.8349996
-1.2700138 -0.059648398 2.835
-1.2422774 -0.047321063 2.8349993
-1.2116082 -0.047221653 2.8349998
-1.1877489 -0.05194382 2.8349996
-1.1547318 -0.056589514 2.8349998
-1.1382903 -0.059648398 2.835
-1.0985247 -0.044736296 2.835
-1.3536873 -0.0281673 2.835
-1.3354614 -0.0193305 2.8349993
-1.3064656 -0.024853501 2.835
-1.2874112 -0.01739745 2.835
-1.2343905 -0.0198828 2.835
-1.216113 -0.01599944 2.8349993
-1.1867088 -0.0143598 2.8349993
-1.165132 -0.0079531204 2.835
-1.3520304 0.017894519 2.835
-1.3391894 0.012840975 2.8349996
-1.2327335 0.00248535 2.835
-1.212851 0.013303932 2.8349993
-1.1855117 0.014912101 2.8349993
-1.1555567 0.015304526 2.8349993
-1.1326983 0.021746812 2.835
-1.3520304 0.044736296 2.835
-1.3413039 0.046305995 2.8349996
-1.2367102 0.057660121 2.835
-1.2140937 0.048464336 2.8349993
-1.1855118 0.047221657 2.8349993
-1.1564186 0.046929263 2.8349993
-1.1382903 0.03728025 2.835
-1.0978146 0.048996899 2.8350003
-1.3399277 0.076937802 2.8349996
-1.2421228 0.078978889 2.8349993
-1.2153364 0.077045836 2.8349993
-1.1855118 0.077045858 2.8349993
-1.1556877 0.079886258 2.8349996
-1.1262646 0.079050153 2.8349993
-1.1006551 0.075625658 2.8349998
-1.3346329 0.10687006 2.8349996
-1.2430575 0.10342881 2.8349996
-1.2152654 0.10694105 2.8349993
-1.1855118 0.10687005 2.8349993
-1.1559136 0.10589097 2.8349993
-1.127852 0.10488178 2.8349996
-1.1059808 0.099414006 2.835
-1.3333474 0.1378084 2.8349993
-1.2327335 0.13172355 2.835
-1.2146261 0.13349879 2.8349996
-1.1854365 0.13586582 2.8349993
-1.1562794 0.1377594 2.8349996
-1.1285479 0.13878192 2.8349993
-1.1054837 0.14514445 2.835
-1.3520305 0.15906242 2.835
-1.3333076 0.16502725 2.8349996
-1.2105114 0.16140155 2.8349996
-1.1855118 0.16651842 2.8349993
-1.1621494 0.16701554 2.8349996
-1.1224747 0.16471092 2.8349996
-1.1059809 0.16651845 2.8349998
-1.3536873 0.20711249 2.835
-1.341637 0.19204979 2.8349998
-1.2103654 0.18640123 2.835
-1.1868929 0.1855728 2.835
-1.1548592 0.19598757 2.8349996
-1.1247342 0.19702049 2.8349993
-1.1059809 0.19634265 2.8349998
-1.3540189 0.22716098 2.8349998
-1.3407807 0.22865222 2.8349996
-1.1805412 0.23113754 2.835
-1.1581731 0.2137401 2.835
-1.1238594 0.22576594 2.8349993
-1.1059808 0.22368149 2.835
-1.3540189 0.25797936 2.8349998
-1.3396037 0.25599104 2.8349996
-1.156723 0.25951198 2.8349996
-1.1265266 0.25466555 2.8349996
-1.1059809 0.25599107 2.8349998
-1.35429 0.28468552 2.8349998
-1.3396037 0.28581524 2.8349996
-1.1159221 0.29078594 2.835
-1.108466 0.29078597 2.835
-1.3520304 0.31563944 2.835
-1.3374611 0.3160679 2.8349993
-1.1606584 0.31812483 2.8349998
-1.1276712 0.31812477 2.8349996
-1.108466 0.3032127 2.835
-1.3572936 0.34473261 2.8349996
-1.3408461 0.33842182 2.8349998
-1.1606584 0.3330369 2.835
-1.1251327 0.34063911 2.8349996
-1.1059808 0.34960589 2.835
-1.3579953 0.37628195 2.8349996
-1.3445743 0.38522926 2.835
-1.1059808 0.36783183 2.835
-1.3818547 0.40511203 2.835
-1.3637267 0.40511209 2.8349993
-1.338223 0.40538827 2.8349993
-1.143261 0.41753879 2.835
-1.1308343 0.41588193 2.835
-1.3581706 0.43128136 2.8349996
-1.3392928 0.42965493 2.8349996
-1.143261 0.42996553 2.835
-1.1292135 0.43309927 2.8349996
1.1366334 0.4457061 2.835
1.143261 0.44487762 2.835
-1.3520305 0.46476048 2.835
-1.3454026 0.46724579 2.835
0.62258017 0.47594452 2.835
0.63293582 0.47553027 2.835
0.6859566 0.47718719 2.835
0.70583934 0.47718722 2.835
0.73566359 0.47718719 2.835
0.76300246 0.47718719 2.835
0.79282665 0.47718719 2.835
0.81270945 0.47718719 2.835
0.86738718 0.47718719 2.835
0.87484318 0.47718719 2.835
0.92620707 0.47221649 2.835
0.9593451 0.46227509 2.835
0.97342873 0.4655889 2.835
0.99413997 0.46227509 2.835
1.0488176 0.46227509 2.835
1.1291775 0.45399058 2.835
1.1571789 0.46227509 2.835
1.1894885 0.46625161 2.8349998
1.20788 0.46369532 2.8350003
-1.3555809 0.49600491 2.8349998
-1.3445743 0.48464328 2.835
0.19747236 0.50023317 2.8349998
0.22439161 0.49635991 2.8350003
0.25681946 0.49651772 2.835
0.28581527 0.49624154 2.8349998
0.31398255 0.49127087 2.8349998
0.34723893 0.48783877 2.8350003
0.376353 0.49493971 2.8350003
0.40428361 0.49292776 2.8349998
0.43529129 0.49778014 2.8350003
0.46227509 0.49806413 2.835
0.49806413 0.49458465 2.8349998
0.52192348 0.50017667 2.835
0.55423307 0.49375623 2.835
0.57759535 0.48812276 2.835
0.61388141 0.48298639 2.835
0.646191 0.48663148 2.8349998
0.6717546 0.48499832 2.8350003
0.80028272 0.48215789 2.835
0.82016551 0.48215789 2.835
0.84253359 0.48215789 2.835
0.89721131 0.48215789 2.835
0.91063225 0.48414618 2.835
-1.3567085 0.52367783 2.8349996
-1.3420891 0.53683555 2.835
-1.3567086 0.55496401 2.8349996
-1.3406687 0.55529821 2.8349996
-1.3588085 0.58405721 2.8349996
-1.3398796 0.5796389 2.8349996
-1.3572932 0.6137352 2.8349996
-1.3470597 0.61338443 2.835
-1.3591312 0.64169365 2.8349996
-1.3437458 0.64840019 2.835
-1.3545159 0.67352986 2.8349998
-1.343236 0.67486811 2.8349998
-1.3593783 0.70411038 2.8349996
-1.3389821 0.70480371 2.8349996
-1.359094 0.73252434 2.8349996
-1.3396034 0.73317826 2.8349996
0.77542919 0.73317826 2.835
0.78039992 0.73069286 2.835
-1.3567085 0.76227146 2.8349996
-1.3387088 0.76409596 2.8349993
0.6859566 0.75803173 2.835
0.69092733 0.75803173 2.835
-1.3536874 0.79034126 2.835
-1.3387088 0.79133534 2.8349993
0.69731826 0.79744232 2.8350003
-1.3536874 0.82513613 2.835
-1.3420888 0.82265079 2.8349996
0.69838333 0.81022406 2.835
-1.3520305 0.8516466 2.835
-1.342612 0.85365236 2.8349996
-1.3589342 0.8894791 2.8349996
-1.3460655 0.880808 2.835
-1.3545159 0.91709417 2.8349998
-1.3458169 0.91833675 2.835
-1.3579953 0.93548578 2.835
-1.3399585 0.94869369 2.8349996
0.6859566 0.95685971 2.835
0.69092739 0.95437443 2.835
-1.3541608 0.98277843 2.8350003
-1.3410947 0.97574824 2.8349996
-1.3818547 1.0189935 2.835
-1.363997 1.0062907 2.8349993
-1.3445743 0.9966253 2.835
-1.362188 1.0352023 2.8349996
-1.3445743 1.043847 2.835
0.7630024 1.0413616 2.835
-1.3893107 1.0687004 2.835
-1.3593553 1.0681772 2.8349996
-1.3470597 1.0637298 2.835
0.6859566 1.0687004 2.835
0.69755495 1.0691147 2.8349998
0.76134557 1.066215 2.835
-1.3871806 1.0985247 2.8349998
-1.3669428 1.0960392 2.8349996
0.70583928 1.0920628 2.8349998
0.76238108 1.0954181 2.835
-1.4166496 1.1333196 2.835
-1.3911477 1.124459 2.8349996
-1.3661782 1.1241432 2.8349996
0.7058394 1.1159222 2.835
0.75803173 1.1159222 2.835
-1.086341 -1.1171339 2.859
-1.0758679 -1.1247425 2.8589997
-1.092568 -1.0949655 2.8590002
-1.0929866 -1.0661179 2.8590002
-1.0752412 -1.0652157 2.8589997
-1.0906065 -1.0345942 2.8590002
-1.0763155 -1.0304844 2.859
-1.0945551 -1.0044725 2.8590004
-1.0777478 -1.0050623 2.859
-1.0970075 -0.97696447 2.8590002
-1.0989128 -0.94268101 2.8590002
-1.0927861 -0.91506022 2.8589997
-1.0966421 -0.88321316 2.8590004
-1.0962566 -0.85545015 2.8590004
-1.0919505 -0.82850111 2.8590002
-1.0970827 -0.79524177 2.859
-1.1128372 -0.76194257 2.859
-1.1006634 -0.76731336 2.859
-1.1128372 -0.74189138 2.859
-1.1028116 -0.7327013 2.8589997
-1.0990522 -0.70199817 2.8590002
-1.1128372 -0.66669977 2.859
-1.0993938 -0.67490244 2.8590004
-1.1128372 -0.6516614 2.859
-1.1013795 -0.64306813 2.8590002
-1.0943689 -0.61472511 2.8590002
-1.0972204 -0.58283204 2.8590004
-1.0975351 -0.55509937 2.8590002
-1.0916293 -0.52441394 2.8589997
-1.1128372 -0.50629079 2.859
-1.0967435 -0.49415457 2.8590002
-1.1128372 -0.45866936 2.859
-1.1028117 -0.46368212 2.8590002
-1.1128373 -0.43360543 2.859
