# .PCD v0.7 - Point Cloud Data file format
VERSION 0.7
FIELDS x y z
SIZE 4 4 4
TYPE F F F
COUNT 1 1 1
WIDTH 1456
HEIGHT 1
VIEWPOINT 0 0 0 1 0 0 0
POINTS 1456
DATA ascii
-0.55653793 0.076469764 3.3986564
-0.5342654 0.076323628 3.3921611
-0.99340743 0.10613327 3.3962646
-0.98918575 0.1065933 3.4109855
-0.61476922 0.10673001 3.4153602
-0.58782041 0.10648844 3.40763
-0.55653793 0.106208 3.3986564
-0.5342654 0.10600504 3.3921611
-0.99340743 0.13585058 3.3962646
-0.98918575 0.13643941 3.4109855
-0.61476922 0.13661441 3.4153607
-0.58782047 0.13630518 3.4076302
-0.55653793 0.13594626 3.3986564
-0.5342654 0.13568646 3.3921611
-0.99340743 0.1655679 3.3962646
-0.98918575 0.16628554 3.4109855
-0.61476922 0.16649882 3.4153609
-0.58782053 0.16612196 3.40763
-0.55653787 0.16568446 3.3986561
-0.5342654 0.16536786 3.3921611
-0.99340743 0.1952852 3.3962646
-0.98918575 0.19613165 3.4109855
-0.61476922 0.19638321 3.4153607
-0.58782047 0.19593872 3.4076302
-0.55653793 0.19542274 3.3986564
-0.5342654 0.19504927 3.3921611
-0.99340743 0.22500253 3.3962646
-0.98918575 0.22597779 3.4109855
-0.61476922 0.22626762 3.4153605
-0.58782053 0.2257555 3.40763
-0.55653793 0.22516099 3.3986564
-0.5342654 0.22473067 3.3921611
-0.99340743 0.25471985 3.3962646
-0.98918575 0.25582391 3.4109855
-0.61476922 0.25615203 3.4153607
-0.58782047 0.25557226 3.4076302
-0.55653793 0.2548992 3.3986564
-0.5342654 0.25441211 3.3921611
-0.99340743 0.28443718 3.3962646
-0.98918575 0.28567001 3.4109855
-0.61476922 0.28603643 3.4153605
-0.58782047 0.28538904 3.40763
-0.55653787 0.28463745 3.3986564
-0.5342654 0.2840935 3.3921611
-0.99340743 0.31415448 3.3962646
-0.98918575 0.31551617 3.4109855
-0.61476922 0.31592083 3.4153607
-0.58782047 0.31520578 3.4076302
-0.55653793 0.3143757 3.3986564
-0.5342654 0.31377491 3.3921611
-0.99340743 0.3438718 3.3962646
-0.98918575 0.34536231 3.4109855
-0.61476916 0.34580526 3.4153605
-0.58782053 0.34502253 3.40763
-0.55653793 0.34411392 3.3986559
-0.5342654 0.3434563 3.3921611
-0.99340743 0.37358913 3.3962646
-0.98918575 0.37520838 3.4109855
-0.61476922 0.37568966 3.4153607
-0.58782047 0.37483928 3.4076302
-0.55653793 0.37385213 3.3986564
-0.5342654 0.37313771 3.3921611
-0.99340743 0.40330642 3.3962646
-0.98918575 0.40505451 3.4109855
-0.61476916 0.40557408 3.4153602
-0.58782041 0.40465611 3.4076297
-0.55653787 0.40359047 3.3986559
-0.5342654 0.40281913 3.3921611
-0.99340743 0.43302378 3.3962646
-0.98918575 0.43490064 3.4109855
-0.61476922 0.43545845 3.4153607
-0.58782047 0.43447283 3.4076302
-0.55550975 0.43459678 3.3983614
-0.5342654 0.43674076 3.3921611
-0.99340743 0.46274105 3.3962646
-0.98918575 0.46474677 3.4109855
-0.61476916 0.46534285 3.4153602
-0.58782053 0.46428961 3.40763
-0.55742902 0.46395048 3.3989122
-0.5342654 0.46642217 3.3921611
-0.99340743 0.49670368 3.3962646
-0.98918575 0.49459288 3.4109855
-0.61476922 0.49522728 3.4153607
-0.58782047 0.49410635 3.4076302
-0.55564588 0.49616542 3.3984005
-0.5342654 0.49610358 3.3921611
-0.99340743 0.52642107 3.3962646
-0.98918575 0.52443898 3.4109855
-0.61476928 0.52511168 3.4153609
-0.58782041 0.52392316 3.40763
-0.55756712 0.52552885 3.3989518
-0.5342654 0.52578497 3.3921611
-0.99340743 0.55613834 3.3962646
-0.98918575 0.55428517 3.4109855
-0.61476922 0.55499607 3.4153607
-0.58782047 0.55373985 3.4076302
-0.55653787 0.55652988 3.3986564
-0.5342654 0.55546641 3.3921611
-0.99340743 0.58585566 3.3962646
-0.98918575 0.58413124 3.4109855
-0.61476922 0.58488047 3.4153602
-0.58782053 0.58355665 3.40763
-0.55653793 0.58626819 3.3986564
-0.5342654 0.5851478 3.3921611
-0.99340743 0.61557293 3.3962646
-0.98918575 0.61397737 3.4109855
-0.61476922 0.61476499 3.4153607
-0.58692449 0.61502975 3.4073732
-0.55653793 0.61600643 3.3986564
-0.5342654 0.61482918 3.3921611
-0.99340743 0.64529032 3.3962646
-0.98918575 0.64382344 3.4109855
-0.61476922 0.64464927 3.4153605
-0.58863503 0.64439511 3.4078636
-0.55653793 0.64574468 3.3986564
-0.5342654 0.64451063 3.3921611
-0.99340743 0.67500764 3.3962646
-0.98918575 0.6736697 3.4109855
-0.61476922 0.67453367 3.4153607
-0.58692449 0.67465872 3.4073732
-0.55653793 0.67548281 3.3986564
-0.5342654 0.67419201 3.3921611
-0.99340743 0.70472497 3.3962646
-0.98918575 0.70351571 3.4109855
-0.61476922 0.70441812 3.4153609
-0.58863503 0.70403272 3.4078636
-0.55653793 0.70522112 3.3986564
-0.5342654 0.7038734 3.3921611
-0.99340743 0.73444223 3.3962646
-0.98918575 0.7333619 3.4109855
-0.61476922 0.73430252 3.4153607
-0.58700544 0.73568696 3.4073963
-0.55653793 0.73495936 3.3986564
-0.5342654 0.73355484 3.3921611
-0.99340743 0.76415956 3.3962646
-0.98918575 0.76320791 3.4109855
-0.61476922 0.76418698 3.4153602
-0.58871692 0.7650696 3.4078872
-0.55653793 0.76469767 3.3986564
-0.5342654 0.76323622 3.3921611
-0.99340743 0.79387689 3.3962646
-0.98918575 0.7930541 3.4109855
-0.61476922 0.79407132 3.4153607
-0.58782047 0.79653352 3.40763
-0.55653787 0.79443586 3.3986564
-0.5342654 0.79291767 3.3921611
-0.99340743 0.82359421 3.3962646
-0.98918575 0.82290018 3.4109855
-0.61476922 0.82395571 3.4153605
-0.58782047 0.82635033 3.4076302
-0.55653787 0.82417411 3.3986564
-0.5342654 0.82683927 3.3921611
-0.99340743 0.85331154 3.3962646
-0.98918575 0.85701007 3.4109855
-0.61476922 0.85384011 3.4153607
-0.58782047 0.85616702 3.40763
-0.55653793 0.85391235 3.3986564
-0.5342654 0.85652065 3.3921611
-0.99340743 0.88302886 3.3962646
-0.98918575 0.88685626 3.4109855
-0.61476922 0.88372463 3.4153602
-0.58782047 0.88598382 3.4076302
-0.55550975 0.88487971 3.3983614
-0.5342654 0.88620216 3.3921611
-0.99340743 0.91274613 3.3962646
-0.98918575 0.91670233 3.4109855
-0.61386913 0.91524619 3.4151025
-0.58782047 0.91580057 3.4076297
-0.55742902 0.91430628 3.3989122
-0.5342654 0.91588348 3.3921611
-0.99340743 0.9467088 3.3962646
-0.98918575 0.94654846 3.4109855
-0.6147688 0.94520038 3.4153602
-0.58782053 0.94561726 3.4076302
-0.55526429 0.9454515 3.3982909
-0.5342654 0.94556487 3.3921611
-0.99340743 0.97642612 3.3962646
-0.98918575 0.97639453 3.4109855
-0.61386913 0.97501057 3.4151025
-0.58782041 0.97543406 3.40763
-0.55781156 0.97478926 3.3990219
-0.5342654 0.97524637 3.3921611
-0.99340743 1.0061433 3.3962646
-0.98918575 1.0062407 3.4109855
-0.61558753 1.0044945 3.4155955
-0.58782041 1.0052508 3.4076302
-0.55564588 1.0059254 3.3984005
-0.5342654 1.0049278 3.3921611
-0.99340743 1.0358608 3.3962646
-0.98918575 1.0360868 3.4109855
-0.61386913 1.0347748 3.4151025
-0.58782041 1.0350676 3.4076297
-0.55756712 1.0353715 3.3989515
-0.5342654 1.0346092 3.3921611
-0.99340743 1.065578 3.3962646
-0.98918575 1.065933 3.4109855
-0.61558753 1.0642676 3.4155955
-0.58782041 1.0648844 3.4076302
-0.55564588 1.0653975 3.3984005
-0.5342654 1.0642905 3.3921611
-0.99340743 1.0952954 3.3962646
-0.98918575 1.0957789 3.4109855
-0.61395049 1.0959439 3.4151256
-0.58782047 1.0947012 3.40763
-0.55756712 1.0948532 3.3989515
-0.5342654 1.093972 3.3921611
-0.99340743 1.1250126 3.3962646
-0.98918575 1.1256251 3.4109855
-0.61566973 1.1254452 3.4156189
-0.58782041 1.1245179 3.4076302
-0.55653787 1.1258049 3.3986564
-0.5342654 1.1236534 3.3921611
-0.99340743 1.1547301 3.3962646
-0.98918575 1.1554712 3.4109855
-0.61395055 1.1557086 3.4151256
-0.58782041 1.1543347 3.40763
-0.55653793 1.1555431 3.3986564
-0.5342654 1.1533349 3.3921611
-0.99340743 1.1844473 3.3962646
-0.98918575 1.1853174 3.4109855
-0.61566979 1.1852186 3.4156189
-0.58782047 1.1841513 3.4076302
-0.55653793 1.1852814 3.3986564
-0.5342654 1.1830162 3.3921611
-0.99340743 1.2141646 3.3962646
-0.98918575 1.2151636 3.4109855
-0.61395049 1.2154734 3.4151256
-0.58782047 1.2139683 3.40763
-0.55653793 1.2150196 3.3986564
-0.5342654 1.2169378 3.3921611
-0.99340743 1.2438819 3.3962646
-0.98918575 1.2450097 3.4109855
-0.61566979 1.2449919 3.4156189
-0.58692449 1.2453936 3.4073732
-0.55653787 1.2447579 3.3986564
-0.5342654 1.2466192 3.3921611
-0.99340743 1.2735993 3.3962646
-0.98918575 1.2748559 3.4109855
-0.61395055 1.275238 3.4151258
-0.58863497 1.2748499 3.4078636
-0.55653793 1.2744961 3.3986559
-0.5342654 1.2763007 3.3921611
-0.99340743 1.3033166 3.3962646
-0.98918575 1.3047019 3.4109855
-0.61566973 1.3047652 3.4156189
-0.58692437 1.3050227 3.4073732
-0.55653793 1.3042341 3.3986561
-0.5342654 1.3059821 3.3921611
-0.99340743 1.3330339 3.3962646
-0.98918575 1.334548 3.4109855
-0.61395055 1.3350028 3.4151258
-0.58863503 1.3344874 3.4078636
-0.55550975 1.3351625 3.3983614
-0.5342654 1.3356634 3.3921611
-0.99340743 1.3500152 3.3962646
-0.97329456 1.3515618 3.4001555
-0.9435432 1.3515619 3.4001555
-0.91379178 1.3515618 3.4001555
-0.88404047 1.3515619 3.4001555
-0.85428905 1.3515618 3.4001555
-0.82453775 1.3515619 3.4001555
-0.79478633 1.3515618 3.4001555
-0.76503503 1.3515619 3.4001555
-0.73528361 1.3515618 3.4001555
-0.70553225 1.3515619 3.4001555
-0.67578089 1.3515618 3.4001555
-0.64602959 1.3515619 3.4001555
-0.61777753 1.351267 3.4037132
-0.58652687 1.3515619 3.4001555
-0.56086284 1.3511639 3.3991547
-0.98234999 -2.0540187 3.4348214
-0.72841769 -2.0559435 3.4481235
-0.70642585 -2.0547299 3.441761
-0.67815006 -2.0516055 3.4336491
-0.64638966 -2.050442 3.4245379
-0.98277956 -2.0256517 3.4333239
-0.72841775 -2.0257726 3.4481235
-0.70468032 -2.0248678 3.4412603
-0.67906028 -2.0242889 3.4339101
-0.6472944 -2.0257671 3.424798
-0.9827795 -1.9956101 3.4333239
-0.72841769 -1.9956013 3.4481235
-0.70642596 -1.9944992 3.441761
-0.67732263 -1.9944991 3.4334114
-0.64534581 -1.9959346 3.4242387
-0.9827795 -1.9655684 3.4333239
-0.72841775 -1.9654305 3.4481235
-0.70468026 -1.9646456 3.4412603
-0.67906028 -1.9641956 3.4339104
-0.64729434 -1.9658326 3.4247975
-0.9827795 -1.9355268 3.4333239
-0.72841769 -1.9352592 3.4481235
-0.70642585 -1.9342682 3.441761
-0.67732263 -1.9344146 3.4334118
-0.64534581 -1.9360106 3.4242387
-0.9827795 -1.9054853 3.4333239
-0.72841775 -1.9050882 3.4481235
-0.70468026 -1.9044237 3.4412603
-0.67815006 -1.9056753 3.4336491
-0.6472944 -1.9058989 3.424798
-0.9827795 -1.8754438 3.4333236
-0.72841769 -1.8749171 3.4481235
-0.70551145 -1.8756167 3.4414988
-0.67815012 -1.8756311 3.4336491
-0.64534581 -1.8760864 3.4242384
-0.9827795 -1.8454019 3.4333239
-0.72841775 -1.844746 3.4481235
-0.70551151 -1.8455033 3.4414988
-0.67815006 -1.8455865 3.4336491
-0.64638966 -1.8449699 3.4245384
-0.9827795 -1.8153605 3.4333236
-0.72841769 -1.8145748 3.4481235
-0.70551151 -1.8153905 3.4414988
-0.67815012 -1.8155421 3.4336491
-0.64638966 -1.8150052 3.4245381
-0.98277956 -1.7853189 3.4333239
-0.72841775 -1.7844038 3.4481235
-0.70551151 -1.7852771 3.4414988
-0.67815006 -1.7854977 3.4336491
-0.64638966 -1.7850404 3.4245384
-0.9827795 -1.7552774 3.4333239
-0.72841769 -1.7542326 3.4481235
-0.70551145 -1.7551641 3.4414988
-0.67815012 -1.7554531 3.4336491
-0.6463896 -1.7550757 3.4245384
-0.9827795 -1.7252358 3.4333239
-0.72841775 -1.7240617 3.4481235
-0.70551151 -1.7250512 3.4414988
-0.67815006 -1.7254086 3.4336491
-0.6463896 -1.7251111 3.4245381
-0.9827795 -1.6951942 3.4333239
-0.72841769 -1.6938907 3.4481235
-0.70551145 -1.6949378 3.4414988
-0.67815012 -1.6953644 3.4336491
-0.6463896 -1.6951464 3.4245381
-0.9827795 -1.6651527 3.4333239
-0.72841775 -1.6637195 3.4481235
-0.70551151 -1.6648248 3.4414988
-0.67815006 -1.6653199 3.4336491
-0.64638966 -1.6651816 3.4245384
-0.9827795 -1.6351111 3.4333236
-0.7290749 -1.6354879 3.4483197
-0.70551151 -1.6347119 3.4414988
-0.67815012 -1.6352754 3.4336491
-0.64638966 -1.635217 3.4245381
-0.9827795 -1.6050694 3.4333239
-0.72776055 -1.6057479 3.4479275
-0.70551151 -1.6045988 3.4414988
-0.67815006 -1.6052309 3.4336491
-0.64638966 -1.6052521 3.4245384
-0.98277962 -1.5750279 3.4333239
-0.7290749 -1.5751423 3.4483197
-0.70551151 -1.5744855 3.4414988
-0.67815012 -1.5751866 3.4336488
-0.64638966 -1.5752873 3.4245381
-0.9827795 -1.5449862 3.4333239
-0.72776055 -1.5454094 3.4479275
-0.70551157 -1.5443724 3.4414988
-0.67815006 -1.5451421 3.4336491
-0.64638966 -1.5453227 3.4245381
-0.98277962 -1.5149446 3.4333239
-0.7290749 -1.5147967 3.4483197
-0.70551151 -1.5142593 3.4414988
-0.67815012 -1.5150976 3.4336491
-0.64638966 -1.5153582 3.4245381
-0.9827795 -1.4849031 3.4333236
-0.72776055 -1.4850706 3.4479275
-0.70551157 -1.4841461 3.4414988
-0.67815006 -1.4850534 3.4336491
-0.64638972 -1.4853934 3.4245381
-0.9827795 -1.4548615 3.4333236
-0.7290749 -1.4544511 3.4483197
-0.70551151 -1.4540331 3.4414988
-0.67815012 -1.4550089 3.4336491
-0.6463896 -1.4554288 3.4245384
-0.9827795 -1.4248199 3.4333239
-0.72776055 -1.424732 3.4479275
-0.70634234 -1.4251909 3.4417372
-0.67815006 -1.4249645 3.4336491
-0.6463896 -1.4254638 3.4245384
-0.9827795 -1.3947785 3.4333239
-0.72841775 -1.39649 3.4481235
-0.70459765 -1.3954201 3.4412365
-0.67815012 -1.3949201 3.4336491
-0.6463896 -1.3954995 3.4245381
-0.98277956 -1.3647369 3.4333236
-0.72841769 -1.3663188 3.4481235
-0.70634234 -1.3649606 3.4417372
-0.67815006 -1.3648754 3.4336491
-0.64638966 -1.3655347 3.4245381
-0.9827795 -1.3346952 3.4333236
-0.72841775 -1.3361478 3.4481235
-0.70459765 -1.3351985 3.4412365
-0.67815012 -1.3348312 3.4336491
-0.6463896 -1.3355697 3.4245381
-0.9827795 -1.3046536 3.4333236
-0.72841769 -1.3059767 3.4481235
-0.70634234 -1.3047302 3.4417372
-0.67815006 -1.3047867 3.4336491
-0.64638966 -1.3056051 3.4245381
-0.98277962 -1.2746122 3.4333239
-0.72841775 -1.2758057 3.4481235
-0.70459759 -1.2749768 3.4412365
-0.67815012 -1.2747424 3.4336491
-0.6463896 -1.2756405 3.4245384
-0.9827795 -1.2445704 3.4333239
-0.72841769 -1.2456346 3.4481235
-0.70634234 -1.2444998 3.4417372
-0.67815006 -1.2446978 3.4336491
-0.64638966 -1.2456757 3.4245381
-0.98277962 -1.2145289 3.4333239
-0.72841775 -1.2154635 3.4481235
-0.70459759 -1.2147552 3.4412365
-0.67815012 -1.2146534 3.4336488
-0.64638966 -1.2157109 3.4245384
-0.98308641 -1.1865746 3.4322541
-0.72841769 -1.1852925 3.4481235
-0.70634228 -1.1842694 3.4417372
-0.67815006 -1.1846091 3.4336491
-0.6463896 -1.1857462 3.4245381
-0.98247278 -1.1566501 3.4343936
-0.72841775 -1.1551213 3.4481235
-0.70459765 -1.1545335 3.4412365
-0.67815012 -1.1545644 3.4336488
-0.64638966 -1.1557816 3.4245381
-0.98308641 -1.1265101 3.4322538
-0.72841769 -1.1249503 3.4481235
-0.70642585 -1.1254547 3.441761
-0.67815006 -1.1245201 3.4336491
-0.6463896 -1.1258168 3.4245379
-0.98247272 -1.0965483 3.4343939
-0.72841775 -1.0947793 3.4481235
-0.70468026 -1.0957276 3.4412603
-0.67815012 -1.0944757 3.4336491
-0.64638966 -1.0958521 3.4245384
-0.98308641 -1.0664457 3.4322538
-0.72841769 -1.0646081 3.4481235
-0.70642585 -1.0652238 3.441761
-0.67815006 -1.0644313 3.4336491
-0.64638966 -1.0658875 3.4245384
-0.98247278 -1.0364463 3.4343939
-0.72841775 -1.0344371 3.4481235
-0.70468026 -1.0355055 3.4412603
-0.67815012 -1.0343869 3.4336488
-0.6463896 -1.0359228 3.4245381
-0.98308641 -1.0063813 3.4322538
-0.72841769 -1.0042659 3.4481235
-0.70642585 -1.0049928 3.441761
-0.67815006 -1.0043423 3.4336491
-0.64638966 -1.0059581 3.4245384
-0.98247272 -0.97634441 3.4343939
-0.72841775 -0.97409487 3.4481235
-0.70468032 -0.97528332 3.4412603
-0.67815012 -0.97429788 3.4336488
-0.6463896 -0.97599334 3.4245384
-0.98308635 -0.9463169 3.4322538
-0.72841769 -0.94392371 3.4481235
-0.70551151 -0.94641197 3.4414988
-0.67815006 -0.9442535 3.4336491
-0.6463896 -0.94602871 3.4245381
-0.98247272 -0.9162426 3.4343939
-0.72841775 -0.91375273 3.4481235
-0.70551151 -0.91629905 3.4414988
-0.67815012 -0.91420913 3.4336488
-0.6463896 -0.91606396 3.4245381
-0.98308635 -0.8862524 3.4322538
-0.72841769 -0.88358158 3.4481235
-0.70551151 -0.88618582 3.4414988
-0.67815006 -0.88416469 3.4336491
-0.64638966 -0.88609928 3.4245386
-0.98247278 -0.85614073 3.4343936
-0.72841775 -0.85341048 3.4481235
-0.70551151 -0.85607278 3.4414988
-0.67815012 -0.85412025 3.4336491
-0.6463896 -0.85613453 3.4245384
-0.98308641 -0.82618797 3.4322541
-0.7290749 -0.82513279 3.4483197
-0.70551151 -0.82595956 3.4414988
-0.67815006 -0.8240757 3.4336491
-0.64638966 -0.82616985 3.4245381
-0.98247278 -0.79603881 3.4343939
-0.72776055 -0.79548526 3.4479275
-0.70551151 -0.79584658 3.4414988
-0.67815012 -0.79403132 3.4336488
-0.64638966 -0.79620504 3.4245377
-0.98308641 -0.76612353 3.4322538
-0.7290749 -0.76478726 3.4483197
-0.70551151 -0.76573336 3.4414988
-0.67815006 -0.76398689 3.4336491
-0.6463896 -0.76624024 3.4245381
-0.98247278 -0.73593688 3.4343939
-0.72776055 -0.73514646 3.4479275
-0.70551151 -0.73562026 3.4414988
-0.67815012 -0.73394251 3.4336491
-0.64638966 -0.73627567 3.4245381
-0.98308641 -0.70605904 3.4322538
-0.72841775 -0.70686531 3.4481235
-0.70551157 -0.70550716 3.4414988
-0.67815006 -0.70389807 3.4336491
-0.64638972 -0.70631093 3.4245384
-0.98247278 -0.67583501 3.4343936
-0.72841769 -0.67669421 3.4481235
-0.70551151 -0.67539406 3.4414988
-0.67815012 -0.67385364 3.4336491
-0.6463896 -0.67634624 3.4245381
-0.98308641 -0.6459946 3.4322541
-0.72841775 -0.64652312 3.4481235
-0.70551151 -0.64528096 3.4414988
-0.67815006 -0.6438092 3.4336491
-0.6463896 -0.6463815 3.4245381
-0.98247272 -0.61573315 3.4343939
-0.72841769 -0.61635208 3.4481235
-0.70551157 -0.6151678 3.4414988
-0.67815012 -0.61376476 3.4336491
-0.64638966 -0.61641681 3.4245381
-0.98308641 -0.58593017 3.4322538
-0.72841775 -0.58618104 3.4481235
-0.70551157 -0.58505476 3.4414988
-0.67815006 -0.58372039 3.4336491
-0.6463896 -0.58645213 3.4245384
-0.98247272 -0.55563128 3.4343939
-0.72841769 -0.55600989 3.4481235
-0.70551157 -0.55494165 3.4414988
-0.67815012 -0.55367595 3.4336488
-0.64638966 -0.55648744 3.4245377
-0.98308635 -0.52586573 3.4322538
-0.72841775 -0.52583879 3.4481235
-0.70551151 -0.52482855 3.4414988
-0.67815006 -0.52363151 3.4336491
-0.64638966 -0.5265227 3.4245381
-0.98247278 -0.49552935 3.4343936
-0.72841769 -0.49566773 3.4481235
-0.70551151 -0.49471539 3.4414988
-0.67815012 -0.49358708 3.4336491
-0.6463896 -0.49655804 3.4245381
-0.98308635 -0.4658013 3.4322538
-0.72841775 -0.46549663 3.4481235
-0.70551151 -0.46460232 3.4414988
-0.67815006 -0.46354261 3.4336491
-0.6463896 -0.4665933 3.4245381
-0.98247272 -0.43542752 3.4343939
-0.72841769 -0.43532556 3.4481235
-0.70551157 -0.43448919 3.4414988
-0.67815012 -0.4334982 3.4336488
-0.64638966 -0.43662858 3.4245381
-0.98308635 -0.40573683 3.4322538
-0.72841775 -0.40515447 3.4481235
-0.70551151 -0.40437606 3.4414988
-0.67815006 -0.40345383 3.4336491
-0.64638966 -0.40666389 3.4245384
-0.98247272 -0.37532556 3.4343939
-0.72841769 -0.3749834 3.4481235
-0.70551157 -0.37426299 3.4414988
-0.67815012 -0.37340927 3.4336491
-0.6463896 -0.37669921 3.4245384
-0.98308635 -0.34567243 3.4322538
-0.72841775 -0.34481233 3.4481235
-0.70551157 -0.34414983 3.4414988
-0.67815006 -0.34336489 3.4336491
-0.64638972 -0.34673446 3.4245381
-0.98247278 -0.31522369 3.4343936
-0.72841769 -0.31464127 3.4481235
-0.70551151 -0.31403676 3.4414988
-0.67815012 -0.31332052 3.4336491
-0.64638966 -0.31676975 3.4245381
-0.98308635 -0.28560793 3.4322538
-0.72841775 -0.2844702 3.4481235
-0.70551157 -0.28392363 3.4414988
-0.67815006 -0.28327608 3.4336491
-0.6463896 -0.28680506 3.4245381
-0.98247272 -0.2551218 3.4343936
-0.72841769 -0.2542991 3.4481235
-0.70551157 -0.25381052 3.4414988
-0.67815012 -0.25323164 3.4336491
-0.64638966 -0.25684035 3.4245381
-0.98308635 -0.22554353 3.4322538
-0.72841775 -0.22412801 3.4481235
-0.70551157 -0.22369739 3.4414988
-0.67815006 -0.22318721 3.4336491
-0.64638966 -0.22687563 3.4245381
-0.98247272 -0.19501992 3.4343939
-0.72841769 -0.19395693 3.4481235
-0.70551151 -0.19358426 3.4414988
-0.67815012 -0.19314277 3.4336491
-0.6463896 -0.19691095 3.4245381
-0.98308635 -0.16547909 3.4322541
-0.72841775 -0.16378586 3.4481235
-0.70551151 -0.16347118 3.4414988
-0.67815006 -0.16309834 3.4336493
-0.64638972 -0.16694622 3.4245384
-0.98247278 -0.13491803 3.4343936
-0.72841769 -0.13361478 3.4481235
-0.70551151 -0.13335806 3.4414988
-0.67815012 -0.1330539 3.4336491
-0.6463896 -0.13698152 3.4245384
-0.98308635 -0.10541464 3.4322541
-0.72841775 -0.1034437 3.4481235
-0.70551151 -0.10324495 3.4414988
-0.67815006 -0.10300948 3.4336491
-0.64638966 -0.1070168 3.4245384
-0.98247272 -0.074816138 3.4343939
-0.72841769 -0.073272623 3.4481235
-0.70551151 -0.073131837 3.4414988
-0.67815012 -0.072965048 3.4336491
-0.64638966 -0.077052109 3.4245384
-0.98308635 -0.045350198 3.4322538
-0.72841775 -0.043101542 3.4481235
-0.70551151 -0.043018728 3.4414988
-0.67815006 -0.042920612 3.4336491
-0.64638966 -0.047087397 3.4245381
-0.9827795 -0.01716662 3.4333239
-0.72841775 -0.017240617 3.4481235
-0.70551151 -0.017207492 3.4414988
-0.67815006 -0.017168244 3.4336491
-0.6463896 -0.01712269 3.4245384
-0.98277956 0.012874964 3.4333236
-0.72841769 0.012930463 3.4481235
-0.70551151 0.012905618 3.4414988
-0.67815012 0.012876185 3.4336491
-0.6463896 0.012842017 3.4245384
-0.98308635 0.045350201 3.4322538
-0.72841775 0.043101542 3.4481235
-0.70551157 0.043018725 3.4414988
-0.67815006 0.042920619 3.4336491
-0.64638972 0.047087397 3.4245381
-0.98247272 0.074816138 3.4343939
-0.72841769 0.073272616 3.4481235
-0.70551157 0.073131837 3.4414988
-0.67815012 0.072965041 3.4336491
-0.64638966 0.077052101 3.4245381
-0.98308635 0.10541464 3.4322541
-0.72841775 0.1034437 3.4481235
-0.70551151 0.10324494 3.4414988
-0.67815006 0.10300947 3.4336491
-0.64638966 0.1070168 3.4245384
-0.98247272 0.13491802 3.4343939
-0.72841769 0.13361478 3.4481235
-0.70551157 0.13335806 3.4414988
-0.67815012 0.13305393 3.4336491
-0.64638966 0.13698152 3.4245381
-0.98308641 0.16547909 3.4322538
-0.72841775 0.16378586 3.4481235
-0.70551157 0.16347118 3.4414988
-0.67815006 0.16309832 3.4336491
-0.64638966 0.16694622 3.4245381
-0.98247272 0.19501992 3.4343936
-0.72841769 0.19395693 3.4481235
-0.70551151 0.19358429 3.4414988
-0.67815012 0.19314276 3.4336488
-0.64638966 0.19691095 3.4245384
-0.98308635 0.22554354 3.4322541
-0.72841775 0.22412801 3.4481235
-0.70551145 0.22369739 3.4414988
-0.67815006 0.22318718 3.4336491
-0.6463896 0.22687565 3.4245384
-0.98247272 0.2551218 3.4343936
-0.72841769 0.2542991 3.4481235
-0.70551151 0.25381052 3.4414988
-0.67815012 0.25323161 3.4336491
-0.6463896 0.25684035 3.4245384
-0.98308641 0.28560796 3.4322538
-0.72841775 0.2844702 3.4481235
-0.70551145 0.28392363 3.4414988
-0.67815006 0.28327605 3.4336493
-0.64638966 0.28680506 3.4245386
-0.98247272 0.31522366 3.4343939
-0.72841769 0.31464127 3.4481235
-0.70551151 0.31403673 3.4414988
-0.67815012 0.31332052 3.4336488
-0.6463896 0.31676978 3.4245381
-0.98308641 0.34567243 3.4322538
-0.72841775 0.34481233 3.4481235
-0.70551151 0.3441498 3.4414988
-0.67815006 0.34336489 3.4336491
-0.64638966 0.34673446 3.4245381
-0.98247272 0.37532556 3.4343936
-0.72841769 0.3749834 3.4481235
-0.70551151 0.37426293 3.4414988
-0.67815012 0.37340933 3.4336491
-0.64638966 0.37669918 3.4245381
-0.98308641 0.4057368 3.4322541
-0.72841775 0.40515447 3.4481235
-0.70551151 0.40437606 3.4414988
-0.67815006 0.4034538 3.4336491
-0.64638966 0.40666389 3.4245381
-0.98247272 0.43542752 3.4343939
-0.72841769 0.43532556 3.4481235
-0.70551157 0.43448919 3.4414988
-0.67815012 0.4334982 3.4336491
-0.64638966 0.43662858 3.4245377
-0.98308641 0.46580133 3.4322538
-0.72841775 0.46549663 3.4481235
-0.70551151 0.46460232 3.4414988
-0.67815006 0.46354261 3.4336491
-0.64638966 0.46659333 3.4245379
-0.98247272 0.49552935 3.4343936
-0.72841769 0.4956677 3.4481235
-0.70551157 0.49471542 3.4414988
-0.67897713 0.49479082 3.4338863
-0.64638966 0.49655801 3.4245381
-0.98308635 0.52586573 3.4322538
-0.72841775 0.52583879 3.4481235
-0.70551157 0.52482849 3.4414988
-0.67815006 0.52363151 3.4336491
-0.64638966 0.5265227 3.4245379
-0.98247272 0.55563128 3.4343936
-0.72841769 0.55600989 3.4481235
-0.70551151 0.55494165 3.4414988
-0.67815012 0.55367595 3.4336491
-0.64638966 0.55648744 3.4245381
-0.98308641 0.58593017 3.4322538
-0.72841775 0.58618098 3.4481235
-0.70551151 0.5850547 3.4414988
-0.67815006 0.58372045 3.4336491
-0.64638966 0.58645207 3.4245379
-0.98247272 0.61573309 3.4343936
-0.72841769 0.61635208 3.4481235
-0.70551157 0.61516786 3.4414988
-0.67815012 0.61376476 3.4336491
-0.64638966 0.61641681 3.4245381
-0.98308641 0.6459946 3.4322538
-0.72841775 0.64652318 3.4481235
-0.70551145 0.64528096 3.4414988
-0.67815006 0.6438092 3.4336491
-0.6463896 0.6463815 3.4245379
-0.98247272 0.67583501 3.4343939
-0.72841769 0.67669421 3.4481235
-0.70551151 0.67539406 3.4414988
-0.67815012 0.67385364 3.4336491
-0.64638966 0.67634624 3.4245381
-0.98308641 0.7060591 3.4322541
-0.72841775 0.70686525 3.4481235
-0.70551151 0.70550716 3.4414988
-0.67815006 0.70389813 3.4336491
-0.64638966 0.70631093 3.4245379
-0.98247272 0.73593688 3.4343936
-0.72776055 0.73514646 3.4479275
-0.70551157 0.73562026 3.4414988
-0.67815012 0.73394251 3.4336488
-0.6463896 0.73627561 3.4245384
-0.98308641 0.76612353 3.4322541
-0.7290749 0.76478714 3.4483197
-0.70551151 0.76573336 3.4414988
-0.67815006 0.76398689 3.4336491
-0.64638966 0.76624036 3.4245381
-0.98247272 0.79603881 3.4343939
-0.72776055 0.7954852 3.4479275
-0.70551157 0.7958464 3.4414988
-0.67815012 0.79403138 3.4336491
-0.6463896 0.79620516 3.4245381
-0.98308641 0.82618797 3.4322538
-0.7290749 0.82513279 3.4483197
-0.70551151 0.82595962 3.4414988
-0.67815006 0.82407576 3.4336491
-0.64638972 0.82616979 3.4245384
-0.98247278 0.85614073 3.4343936
-0.72841775 0.8534106 3.4481235
-0.70551151 0.85607278 3.4414988
-0.67815012 0.85412019 3.4336491
-0.6463896 0.85613436 3.4245381
-0.98308641 0.8862524 3.4322541
-0.72841769 0.88358152 3.4481235
-0.70551151 0.88618582 3.4414988
-0.67815006 0.88416469 3.4336491
-0.64638966 0.88609922 3.4245381
-0.98247272 0.91624248 3.4343939
-0.72841775 0.91375273 3.4481235
-0.70551157 0.91629899 3.4414988
-0.67815012 0.91420913 3.4336488
-0.6463896 0.9160639 3.4245384
-0.98308635 0.94631684 3.4322541
-0.72841769 0.94392383 3.4481235
-0.70551151 0.94641197 3.4414988
-0.67815006 0.9442535 3.4336491
-0.64638966 0.94602865 3.4245386
-0.98247272 0.97634447 3.4343936
-0.72841775 0.97409481 3.4481235
-0.70468026 0.97528338 3.4412603
-0.67815012 0.974298 3.4336491
-0.64638966 0.97599339 3.4245377
-0.98308635 1.0063814 3.4322538
-0.72841769 1.0042659 3.4481235
-0.70642591 1.0049931 3.441761
-0.67815006 1.0043424 3.4336491
-0.64638966 1.0059581 3.4245384
-0.98247278 1.0364463 3.4343936
-0.72841775 1.0344371 3.4481235
-0.70468032 1.0355055 3.4412603
-0.67815012 1.0343869 3.4336491
-0.6463896 1.0359226 3.4245381
-0.98308635 1.0664457 3.4322541
-0.72841769 1.0646081 3.4481235
-0.70642585 1.0652237 3.441761
-0.67815006 1.0644313 3.4336488
-0.64638966 1.0658875 3.4245386
-0.98247272 1.0965482 3.4343936
-0.72841775 1.0947793 3.4481235
-0.70468026 1.0957276 3.4412603
-0.67815012 1.0944757 3.4336491
-0.64638966 1.0958521 3.4245381
-0.98308635 1.1265101 3.4322538
-0.72841769 1.1249503 3.4481235
-0.70642596 1.1254547 3.441761
-0.67815006 1.1245202 3.4336491
-0.6463896 1.1258168 3.4245384
-0.98247272 1.1566502 3.4343939
-0.72841775 1.1551213 3.4481235
-0.70459759 1.1545335 3.4412365
-0.67815012 1.1545646 3.4336488
-0.64638966 1.1557816 3.4245384
-0.98308635 1.1865746 3.4322538
-0.72841769 1.1852922 3.4481235
-0.70634234 1.1842693 3.4417372
-0.67815006 1.1846089 3.4336491
-0.64638972 1.1857463 3.4245381
-0.9827795 1.214529 3.4333239
-0.72841775 1.2154636 3.4481235
-0.70459765 1.2147553 3.4412365
-0.67815012 1.2146535 3.4336488
-0.64638966 1.215711 3.4245384
-0.9827795 1.2445704 3.4333239
-0.72841769 1.2456346 3.4481235
-0.70634234 1.2444998 3.4417372
-0.67815006 1.2446979 3.4336491
-0.64638966 1.2456758 3.4245379
-0.9827795 1.2746122 3.4333236
-0.72841775 1.2758057 3.4481235
-0.70459765 1.2749768 3.4412365
-0.67815012 1.2747424 3.4336491
-0.6463896 1.2756404 3.4245381
-0.98277956 1.3046536 3.4333239
-0.72841769 1.3059767 3.4481235
-0.70634234 1.3047302 3.4417372
-0.67815006 1.3047867 3.4336491
-0.64638966 1.3056052 3.4245381
-0.98277962 1.3346952 3.4333239
-0.72841775 1.3361478 3.4481235
-0.70459765 1.3351984 3.4412365
-0.67815012 1.3348311 3.4336491
-0.6463896 1.3355699 3.4245381
-0.97384727 1.3513803 3.4321105
-0.9459669 1.3515526 3.4309924
-0.91616303 1.3515517 3.4341033
-0.88592452 1.3515527 3.4309924
-0.85606617 1.3515517 3.4341035
-0.8258822 1.3515527 3.4309924
-0.79596937 1.3515517 3.4341035
-0.76583982 1.3515526 3.4309926
-0.73587257 1.3515517 3.4341033
-0.70714819 1.3514264 3.4285953
-0.67577767 1.3515556 3.4216592
-0.64579123 1.3514552 3.4214058
-0.97335148 -2.0766895 3.46597
-0.82557487 -2.081306 3.4760854
-0.79765344 -2.0764887 3.4680395
-0.76986974 -2.0760412 3.4600687
-0.74220866 -2.07128 3.4521334
-0.97408009 -2.056402 3.4634299
-0.82557482 -2.0552356 3.4760854
-0.79765344 -2.0548131 3.4680393
-0.76657462 -2.055706 3.4591238
-0.74220866 -2.0540195 3.4521337
-0.97408009 -2.0260968 3.4634297
-0.82557487 -2.0248199 3.4760857
-0.79849702 -2.0257905 3.4682815
-0.76490003 -2.024636 3.4586432
-0.74220866 -2.0238132 3.4521334
-0.97408009 -1.9957919 3.4634295
-0.82642317 -1.9957297 3.4763324
-0.79672539 -1.9957021 3.4677732
-0.76774096 -1.9945103 3.4594584
-0.74220866 -1.993607 3.4521337
-0.97408009 -1.9654868 3.4634295
-0.82464164 -1.9655718 3.4758141
-0.79849696 -1.9650958 3.4682815
-0.76393664 -1.9650918 3.4583669
-0.74220866 -1.9634008 3.4521334
-0.97408009 -1.935182 3.4634299
-0.82642323 -1.934894 3.4763324
-0.79672539 -1.9350163 3.4677732
-0.76774085 -1.9346341 3.4594584
-0.74220866 -1.9331946 3.4521337
-0.97408009 -1.9048768 3.4634295
-0.82464164 -1.9047451 3.4758141
-0.79849702 -1.9044008 3.4682813
-0.76393664 -1.9045706 3.4583669
-0.74220866 -1.9029884 3.4521334
-0.97408009 -1.8745718 3.4634299
-0.82650948 -1.8754956 3.4763608
-0.79672539 -1.8743302 3.4677732
-0.76632148 -1.8752034 3.4590509
-0.74220866 -1.8727822 3.4521337
-0.97408009 -1.8442668 3.4634297
-0.82472515 -1.8453513 3.4758353
-0.7985819 -1.8451375 3.4683056
-0.76433194 -1.8450979 3.4584804
-0.74220866 -1.8468914 3.4521337
-0.97408009 -1.8139619 3.4634295
-0.82650948 -1.8146594 3.4763608
-0.79680932 -1.8150756 3.4677975
-0.76632148 -1.8146701 3.4590504
-0.74220866 -1.8166851 3.4521334
-0.97408009 -1.7836568 3.4634297
-0.82472515 -1.7845244 3.4758351
-0.79858178 -1.7844419 3.4683056
-0.76433194 -1.7845747 3.4584804
-0.74220866 -1.786479 3.4521337
-0.97408009 -1.7533517 3.4634299
-0.82557476 -1.7554233 3.4760854
-0.79680932 -1.7543892 3.467797
-0.76632148 -1.7541367 3.4590509
-0.74220866 -1.7562728 3.4521334
-0.97439241 -1.724983 3.4623408
-0.82557487 -1.7250074 3.4760861
-0.79765344 -1.7253495 3.4680395
-0.76433194 -1.7240514 3.4584804
-0.74220866 -1.7260666 3.4521337
-0.97376788 -1.6951348 3.4645183
-0.82557487 -1.6945918 3.4760857
-0.79765332 -1.6950042 3.4680395
-0.76525563 -1.6947851 3.4587455
-0.74220866 -1.6958605 3.4521334
-0.97439241 -1.6643921 3.4623408
-0.82642335 -1.6654781 3.4763324
-0.79765344 -1.6646589 3.4680393
-0.76617849 -1.6655123 3.4590101
-0.74220866 -1.6656544 3.4521337
-0.97376788 -1.6345056 3.4645185
-0.82464164 -1.6353693 3.4758146
-0.79765338 -1.6343135 3.4680393
-0.76419085 -1.6354414 3.4584398
-0.74220866 -1.6354482 3.4521334
-0.97408009 -1.6061561 3.4634295
-0.82642317 -1.6046423 3.4763324
-0.79765344 -1.6039681 3.4680393
-0.76617849 -1.6049795 3.4590099
-0.74220866 -1.6052421 3.4521337
-0.97408009 -1.575851 3.4634295
-0.82464164 -1.5745425 3.4758141
-0.79849702 -1.5749141 3.4682815
-0.76419085 -1.5749187 3.4584396
-0.74220866 -1.5750358 3.4521334
-0.97408009 -1.5455459 3.4634299
-0.82650948 -1.5452412 3.4763608
-0.79672539 -1.5448917 3.4677732
-0.76657462 -1.5454854 3.4591236
-0.74220866 -1.5448297 3.4521337
-0.97408009 -1.5152409 3.4634295
-0.82472527 -1.5151472 3.4758353
-0.7985819 -1.5156484 3.4683056
-0.7639367 -1.5155041 3.4583671
-0.74220866 -1.5146234 3.4521334
-0.97408009 -1.4849358 3.4634299
-0.82557487 -1.4860266 3.4760857
-0.79680932 -1.4856349 3.467797
-0.76657468 -1.4849508 3.4591238
-0.74220866 -1.4844173 3.4521337
-0.97408009 -1.454631 3.4634297
-0.82557487 -1.4556108 3.4760854
-0.7985819 -1.454953 3.4683056
-0.7639367 -1.4549826 3.4583669
-0.74220866 -1.4542111 3.4521334
-0.97408009 -1.4243259 3.4634295
-0.82557487 -1.425195 3.4760857
-0.79680932 -1.4249483 3.467797
-0.76632148 -1.4255267 3.4590511
-0.74220866 -1.424005 3.4521337
-0.97439241 -1.3960607 3.4623413
-0.82557482 -1.3947792 3.4760857
-0.79765344 -1.3958859 3.4680393
-0.764332 -1.3954958 3.4584806
-0.74220866 -1.3937987 3.4521334
-0.97376788 -1.3660055 3.4645185
-0.82557482 -1.3643637 3.4760854
-0.79765338 -1.3655405 3.4680395
-0.76632148 -1.3649932 3.4590509
-0.74220866 -1.3635926 3.4521337
-0.97439241 -1.3354697 3.4623408
-0.82642323 -1.3352268 3.4763327
-0.79765344 -1.3351952 3.4680393
-0.764332 -1.3349724 3.4584806
-0.74220866 -1.3333865 3.4521334
-0.97376788 -1.3053764 3.4645185
-0.82464164 -1.3051671 3.4758141
-0.79765338 -1.3048499 3.4680395
-0.76525563 -1.3056762 3.458745
-0.74220866 -1.3031805 3.4521337
-0.97439241 -1.2748787 3.4623413
-0.82642335 -1.2743908 3.4763324
-0.79765344 -1.2745043 3.4680398
-0.76525563 -1.2754122 3.458745
-0.74220866 -1.2729741 3.4521334
-0.97376788 -1.2447475 3.4645183
-0.82464164 -1.2443403 3.4758141
-0.79765338 -1.2441592 3.4680395
-0.76525569 -1.2451482 3.4587455
-0.74220866 -1.242768 3.4521337
-0.97439241 -1.214288 3.4623408
-0.82650959 -1.2149869 3.476361
-0.79765344 -1.2138137 3.4680395
-0.76525569 -1.2148843 3.4587452
-0.74220866 -1.216877 3.4521337
-0.97376788 -1.1841183 3.4645185
-0.82472515 -1.1849428 3.4758353
-0.79849702 -1.1847323 3.4682813
-0.76525569 -1.1846201 3.458745
-0.74220866 -1.1866709 3.4521334
-0.97439241 -1.1536969 3.4623408
-0.82557482 -1.1557986 3.4760854
-0.79672539 -1.1547672 3.4677732
-0.76525569 -1.1543562 3.4587452
-0.74220866 -1.1564646 3.4521337
-0.97376788 -1.1234893 3.4645183
-0.82557476 -1.1253827 3.4760857
-0.7985819 -1.125464 3.4683056
-0.76525563 -1.1240922 3.458745
-0.74220866 -1.1262585 3.4521334
-0.97408009 -1.0953002 3.4634295
-0.82557476 -1.094967 3.4760854
-0.7968092 -1.0955076 3.4677975
-0.76617843 -1.0947756 3.4590101
-0.74220866 -1.0960524 3.4521337
-0.97439241 -1.0671382 3.4623408
-0.82557476 -1.0645512 3.4760857
-0.79765344 -1.0664221 3.4680393
-0.76419085 -1.064799 3.4584396
-0.74220866 -1.0658462 3.4521334
-0.97376788 -1.0368763 3.4645185
-0.82557487 -1.0341355 3.4760854
-0.79765338 -1.0360768 3.4680393
-0.76657462 -1.0352647 3.4591238
-0.74220866 -1.03564 3.4521337
-0.97439241 -1.0065473 3.4623413
-0.82642323 -1.0049751 3.4763319
-0.79765344 -1.0057313 3.4680395
-0.7639367 -1.0053951 3.4583669
-0.74220866 -1.0054338 3.4521334
-0.97376788 -0.97624713 3.4645185
-0.82464164 -0.97496474 3.4758141
-0.79765338 -0.97538602 3.4680393
-0.76657462 -0.97473001 3.4591236
-0.74220866 -0.97522771 3.4521337
-0.97439241 -0.94595641 3.4623413
-0.82650948 -0.94556898 3.476361
-0.79765344 -0.9450407 3.4680393
-0.7639367 -0.94487351 3.4583669
-0.74220866 -0.94502151 3.4521334
-0.97376788 -0.91561812 3.4645183
-0.82472515 -0.91556561 3.4758351
-0.79765332 -0.91469538 3.4680393
-0.76632148 -0.91531676 3.4590509
-0.74220866 -0.91481531 3.4521337
-0.97439241 -0.88536549 3.4623408
-0.82557487 -0.88640183 3.4760854
-0.79765344 -0.88435 3.4680395
-0.76433194 -0.88536984 3.4584804
-0.74220866 -0.88460916 3.4521334
-0.97376788 -0.85498893 3.4645185
-0.82557487 -0.85598606 3.4760857
-0.79765332 -0.85400462 3.4680395
-0.76525563 -0.8560394 3.4587455
-0.74220866 -0.85440302 3.4521337
-0.97439241 -0.8247745 3.4623408
-0.82557476 -0.8255704 3.4760854
-0.79765344 -0.82365936 3.4680393
-0.76525569 -0.82577538 3.4587452
-0.74220866 -0.82419682 3.4521334
-0.97376788 -0.79435992 3.4645185
-0.82557482 -0.79515451 3.4760854
-0.79849696 -0.79455072 3.4682815
-0.76525563 -0.79551142 3.4587448
-0.74220866 -0.79399061 3.4521337
-0.97439241 -0.76418346 3.4623413
-0.82557487 -0.7647388 3.4760857
-0.79672539 -0.76464278 3.4677732
-0.76525569 -0.7652474 3.4587452
-0.74220866 -0.76378447 3.4521334
-0.97376788 -0.73373085 3.4645183
-0.82557482 -0.73432302 3.4760854
-0.7985819 -0.73527956 3.4683056
-0.76525563 -0.73498333 3.458745
-0.74220866 -0.73357838 3.4521337
-0.97439241 -0.70359254 3.4623408
-0.82557487 -0.70390731 3.4760854
-0.7968092 -0.70538044 3.4677975
-0.76525557 -0.70471931 3.4587452
-0.74220866 -0.70337212 3.4521334
-0.97408009 -0.67536879 3.4634299
-0.82642323 -0.67472357 3.4763319
-0.79765344 -0.67626768 3.4680393
-0.76525563 -0.67445534 3.458745
-0.74220866 -0.67316598 3.4521337
-0.97408009 -0.64506376 3.4634295
-0.82464164 -0.64476228 3.4758141
-0.79765338 -0.6459223 3.4680393
-0.76525563 -0.64419132 3.458745
-0.74220866 -0.64295983 3.4521334
-0.97408009 -0.61475879 3.4634299
-0.82650948 -0.61531472 3.476361
-0.79765344 -0.61557698 3.4680395
-0.76525563 -0.6139273 3.458745
-0.74220866 -0.61275363 3.4521337
-0.97408009 -0.5844537 3.4634295
-0.82472515 -0.58536124 3.4758353
-0.79765338 -0.58523154 3.4680395
-0.76525569 -0.58366317 3.4587452
-0.74220866 -0.58686268 3.4521337
-0.97408009 -0.55414879 3.4634299
-0.82557482 -0.55617368 3.4760857
-0.79765344 -0.55488628 3.4680393
-0.76525563 -0.55339926 3.458745
-0.74220866 -0.55665648 3.4521334
-0.97376788 -0.52585977 3.4645185
-0.82557482 -0.52575797 3.4760854
-0.79765338 -0.52454096 3.4680395
-0.76657468 -0.52504396 3.4591236
-0.74220866 -0.52645034 3.4521337
-0.97439241 -0.49585202 3.4623408
-0.82557476 -0.4953422 3.4760854
-0.79765344 -0.49419561 3.4680393
-0.7639367 -0.4952859 3.4583671
-0.74220866 -0.49624419 3.4521334
-0.97376788 -0.4652307 3.4645185
-0.82557487 -0.46492642 3.4760857
-0.79765338 -0.46385026 3.4680393
-0.76632148 -0.46564004 3.4590509
-0.74220866 -0.46603799 3.4521337
-0.97439241 -0.43526107 3.4623408
-0.82557482 -0.43451068 3.4760857
-0.79765332 -0.43350488 3.4680393
-0.76433194 -0.43576741 3.4584804
-0.74220866 -0.43583184 3.4521334
-0.97376788 -0.40460163 3.4645183
-0.82557487 -0.4040949 3.4760857
-0.79849702 -0.40436912 3.4682815
-0.76525563 -0.40640256 3.4587455
-0.74220866 -0.40562567 3.4521337
-0.97439241 -0.37467012 3.4623408
-0.82557487 -0.37367922 3.4760857
-0.79672539 -0.37451831 3.4677732
-0.76525557 -0.37613851 3.4587448
-0.74220866 -0.3754195 3.4521334
-0.97408009 -0.34634298 3.4634299
-0.82642335 -0.34447193 3.4763327
-0.79765332 -0.34680393 3.4680398
-0.76525563 -0.34587452 3.458745
-0.74220866 -0.34521335 3.4521337
-0.97408009 -0.31603798 3.4634297
-0.82464164 -0.31455997 3.4758141
-0.79765338 -0.31645855 3.4680393
-0.76525563 -0.31561047 3.458745
-0.74220866 -0.31500715 3.4521334
-0.97408009 -0.28573295 3.4634299
-0.82557487 -0.28677705 3.4760854
-0.79765344 -0.28611326 3.4680393
-0.76525563 -0.28534648 3.458745
-0.74220866 -0.28480101 3.4521337
-0.97408009 -0.25542796 3.4634295
-0.82557482 -0.25636131 3.4760854
-0.79765338 -0.25576788 3.4680393
-0.76525563 -0.25508246 3.458745
-0.74220866 -0.25459483 3.4521334
-0.97408009 -0.22512296 3.4634295
-0.82557487 -0.22594555 3.4760857
-0.79765344 -0.22542258 3.4680395
-0.76525563 -0.22481844 3.4587455
-0.74220866 -0.22438866 3.4521337
-0.97408009 -0.1948179 3.4634295
-0.82557482 -0.19552982 3.4760861
-0.79765338 -0.19507718 3.4680395
-0.76525563 -0.19455442 3.4587452
-0.74220866 -0.19418249 3.4521334
-0.97408009 -0.16451292 3.4634299
-0.82557487 -0.16511406 3.4760854
-0.79765344 -0.16473188 3.4680393
-0.76525563 -0.16429038 3.458745
-0.74220866 -0.16397634 3.4521337
-0.97408009 -0.1342079 3.4634297
-0.82557482 -0.1346983 3.4760854
-0.79765338 -0.13438654 3.4680395
-0.76525563 -0.13402638 3.4587448
-0.74220866 -0.13377017 3.4521334
-0.97408009 -0.10390289 3.4634299
-0.82557493 -0.10428257 3.4760857
-0.79765344 -0.10404117 3.4680398
-0.76525563 -0.10376235 3.4587455
-0.74220866 -0.10356399 3.4521337
-0.97408009 -0.073597886 3.4634295
-0.82557487 -0.073866814 3.4760861
-0.79765338 -0.073695831 3.4680393
-0.76525557 -0.073498331 3.458745
-0.74220866 -0.073357828 3.4521334
-0.97408009 -0.043292873 3.4634299
-0.82557482 -0.043451067 3.4760854
-0.79765344 -0.043350492 3.4680395
-0.76525563 -0.043234315 3.4587455
-0.74220866 -0.043151662 3.4521337
-0.97408009 -0.01731715 3.4634299
-0.82557487 -0.017380428 3.4760854
-0.79765344 -0.017340196 3.4680395
-0.76525563 -0.017293727 3.4587448
-0.74220866 -0.017260667 3.4521337
-0.97408009 0.012987861 3.4634295
-0.82557487 0.01303532 3.4760857
-0.79765338 0.013005149 3.4680395
-0.76525563 0.012970294 3.4587452
-0.74220866 0.012945499 3.4521334
-0.97408009 0.043292873 3.4634295
-0.82557482 0.043451067 3.4760854
-0.79765344 0.043350492 3.4680395
-0.76525569 0.043234315 3.458745
-0.74220866 0.043151662 3.4521337
-0.97408009 0.073597893 3.4634297
-0.82557487 0.073866814 3.4760857
-0.79765338 0.073695824 3.4680393
-0.76525563 0.073498338 3.458745
-0.74220866 0.073357828 3.4521334
-0.97408009 0.10390289 3.4634299
-0.82557487 0.10428257 3.4760859
-0.79765344 0.10404118 3.4680395
-0.76525563 0.10376235 3.458745
-0.74220866 0.10356399 3.4521337
-0.97408009 0.1342079 3.4634295
-0.82557482 0.1346983 3.4760857
-0.79765332 0.13438652 3.4680393
-0.76525557 0.13402638 3.458745
-0.74220866 0.13377017 3.4521334
-0.97408009 0.16451292 3.4634299
-0.82557487 0.16511406 3.4760854
-0.79765344 0.16473185 3.4680398
-0.76525563 0.16429038 3.458745
-0.74220866 0.16397634 3.4521337
-0.97408009 0.19481792 3.4634297
-0.82557476 0.19552982 3.4760857
-0.79765338 0.19507721 3.4680393
-0.76525557 0.19455442 3.458745
-0.74220866 0.1941825 3.4521334
-0.97408009 0.22512293 3.4634295
-0.82557482 0.22594555 3.4760857
-0.79765332 0.22542258 3.4680398
-0.76525563 0.22481841 3.458745
-0.74220866 0.22438869 3.4521337
-0.97408009 0.25542796 3.4634297
-0.82557476 0.25636131 3.4760854
-0.79765338 0.25576788 3.4680393
-0.76525563 0.25508243 3.4587452
-0.74220866 0.25459483 3.4521334
-0.97408009 0.28573295 3.4634295
-0.82557493 0.28677705 3.4760857
-0.79765344 0.28611326 3.4680395
-0.76525557 0.28534645 3.4587448
-0.74220866 0.28480101 3.4521337
-0.97408009 0.31603795 3.4634297
-0.82464164 0.31455994 3.4758146
-0.79765338 0.31645858 3.4680395
-0.76525557 0.3156105 3.458745
-0.74220866 0.31500715 3.4521334
-0.97408009 0.34634298 3.4634299
-0.82642335 0.34447193 3.4763327
-0.79765332 0.3468039 3.4680398
-0.76525563 0.34587452 3.458745
-0.74220866 0.34521335 3.4521337
-0.97439241 0.37467009 3.4623413
-0.82557487 0.37367919 3.4760857
-0.79672539 0.37451828 3.4677732
-0.76525557 0.37613854 3.458745
-0.74220866 0.3754195 3.4521334
-0.97376788 0.4046016 3.4645183
-0.82557487 0.40409499 3.4760857
-0.79849702 0.40436906 3.4682813
-0.76525563 0.40640256 3.4587455
-0.74220866 0.40562567 3.4521337
-0.97439241 0.43526107 3.4623408
-0.82557487 0.43451068 3.4760857
-0.79765344 0.43350494 3.4680398
-0.76433194 0.43576741 3.4584804
-0.74220866 0.43583182 3.4521334
-0.97376788 0.46523073 3.4645185
-0.82557482 0.46492642 3.4760854
-0.79765338 0.46385026 3.4680393
-0.7663216 0.4656401 3.4590511
-0.74220866 0.46603799 3.4521337
-0.97439241 0.49585202 3.4623408
-0.82557487 0.4953422 3.4760857
-0.79765344 0.49419561 3.4680395
-0.7639367 0.4952859 3.4583669
-0.74220866 0.49624419 3.4521334
-0.97376788 0.52585977 3.4645185
-0.82557487 0.52575791 3.4760857
-0.79765338 0.52454096 3.4680393
-0.76657462 0.52504396 3.4591236
-0.74220866 0.5264504 3.4521337
-0.97408009 0.55414879 3.4634295
-0.82557487 0.55617374 3.4760857
-0.79765344 0.55488628 3.4680398
-0.76525563 0.55339926 3.458745
-0.74220866 0.55665648 3.4521334
-0.97408009 0.5844537 3.4634295
-0.82472527 0.58536118 3.4758353
-0.79765332 0.58523166 3.4680393
-0.76525569 0.58366323 3.4587452
-0.74220866 0.58686268 3.4521337
-0.97408009 0.61475879 3.4634299
-0.82650948 0.61531466 3.476361
-0.79765344 0.61557698 3.4680395
-0.76525563 0.6139273 3.458745
-0.74220866 0.61275369 3.4521337
-0.97408009 0.64506376 3.4634297
-0.82464164 0.64476234 3.4758141
-0.79765338 0.6459223 3.4680393
-0.76525563 0.64419127 3.458745
-0.74220866 0.64295983 3.4521334
-0.97408009 0.67536879 3.4634299
-0.82642323 0.67472351 3.4763319
-0.79765344 0.67626768 3.4680393
-0.76525563 0.67445534 3.458745
-0.74220866 0.67316598 3.4521337
-0.97439241 0.70359254 3.4623413
-0.82557482 0.70390731 3.4760854
-0.79680932 0.70538044 3.467797
-0.76525563 0.70471931 3.458745
-0.74220866 0.70337212 3.4521334
-0.97376788 0.73373091 3.4645185
-0.82557476 0.7343232 3.4760857
-0.79858178 0.73527962 3.4683061
-0.76525563 0.73498333 3.4587448
-0.74220866 0.73357838 3.4521337
-0.97439241 0.76418346 3.4623413
-0.82557476 0.76473886 3.4760854
-0.79672539 0.76464278 3.4677732
-0.76525563 0.76524723 3.458745
-0.74220866 0.76378447 3.4521334
-0.97376788 0.79435992 3.4645185
-0.82557476 0.79515457 3.4760857
-0.79849696 0.79455066 3.4682815
-0.76525563 0.79551136 3.458745
-0.74220866 0.79399061 3.4521337
-0.97439241 0.82477444 3.4623413
-0.82557487 0.8255704 3.4760859
-0.79765344 0.8236593 3.4680393
-0.76525563 0.82577538 3.4587452
-0.74220866 0.82419682 3.4521334
-0.97376788 0.85498899 3.4645185
-0.82557482 0.85598606 3.4760854
-0.79765332 0.85400462 3.4680393
-0.76525563 0.8560394 3.4587455
-0.74220866 0.85440302 3.4521337
-0.97439241 0.88536537 3.4623408
-0.82557487 0.88640189 3.4760857
-0.79765344 0.88435 3.4680393
-0.76433194 0.8853699 3.4584804
-0.74220866 0.88460916 3.4521334
-0.97376788 0.91561812 3.4645185
-0.82472515 0.91556561 3.4758353
-0.79765338 0.91469538 3.4680393
-0.76632148 0.9153167 3.4590509
-0.74220866 0.91481537 3.4521337
-0.97439241 0.94595641 3.4623408
-0.82650948 0.94556898 3.4763608
-0.79765344 0.9450407 3.4680393
-0.76393664 0.94487357 3.4583666
-0.74220866 0.94502151 3.4521334
-0.97376788 0.97624713 3.4645183
-0.82464164 0.97496474 3.4758141
-0.79765338 0.97538614 3.4680393
-0.76657468 0.9747299 3.4591236
-0.74220866 0.97522771 3.4521337
-0.97439241 1.0065473 3.4623408
-0.82642323 1.004975 3.4763324
-0.79765344 1.0057312 3.4680393
-0.7639367 1.0053952 3.4583666
-0.74220866 1.0054338 3.4521334
-0.97376788 1.0368763 3.4645183
-0.82557482 1.0341355 3.4760857
-0.79765338 1.0360768 3.4680395
-0.76657462 1.0352647 3.4591238
-0.74220866 1.03564 3.4521337
-0.97439241 1.0671383 3.4623413
-0.82557487 1.0645512 3.4760861
-0.79765344 1.0664221 3.4680393
-0.76419091 1.064799 3.4584398
-0.74220866 1.0658462 3.4521334
-0.97408009 1.0953002 3.4634299
-0.82557487 1.094967 3.4760857
-0.7968092 1.0955076 3.467797
-0.76617855 1.0947756 3.4590099
-0.74220866 1.0960524 3.4521337
-0.97376788 1.1234891 3.4645185
-0.82557482 1.1253828 3.4760861
-0.79858178 1.125464 3.4683056
-0.76525563 1.1240922 3.4587448
-0.74220866 1.1262585 3.4521334
-0.97439241 1.1536969 3.4623408
-0.82557487 1.1557984 3.4760857
-0.79672539 1.1547673 3.4677732
-0.76525569 1.1543562 3.4587452
-0.74220866 1.1564646 3.4521337
-0.97376788 1.1841183 3.4645185
-0.82472515 1.1849428 3.4758351
-0.79849702 1.1847323 3.4682815
-0.76525569 1.1846201 3.458745
-0.74220866 1.1866708 3.4521334
-0.97439241 1.214288 3.4623408
-0.82650948 1.2149868 3.476361
-0.79765344 1.2138138 3.4680395
-0.76525569 1.214884 3.4587452
-0.74220866 1.216877 3.4521337
-0.97376788 1.2447475 3.4645183
-0.82464164 1.2443403 3.4758141
-0.79765338 1.2441591 3.4680393
-0.76525563 1.2451483 3.458745
-0.74220866 1.242768 3.4521337
-0.97439241 1.2748787 3.4623408
-0.82642335 1.2743908 3.4763324
-0.79765332 1.2745044 3.4680395
-0.76525563 1.2754122 3.458745
-0.74220866 1.2729741 3.4521334
-0.97376788 1.3053765 3.4645183
-0.82464153 1.3051671 3.4758141
-0.79765338 1.3048499 3.4680395
-0.76525563 1.3056763 3.458745
-0.74220866 1.3031805 3.4521337
-0.97439241 1.3354697 3.4623408
-0.82642335 1.3352265 3.4763327
-0.79765344 1.3351951 3.4680395
-0.76433194 1.3349721 3.4584804
-0.74220866 1.3333864 3.4521334
-0.96600604 1.3515421 3.4654927
-0.94434679 1.3515422 3.465493
-0.9140237 1.3515421 3.4654927
-0.88370073 1.3515422 3.465493
-0.85337758 1.3515421 3.4654927
-0.82305449 1.3515422 3.465493
-0.79705453 1.3515271 3.4654541
-0.77911204 1.3504609 3.4627202
-0.96303439 -2.1011658 3.5019431
-0.93854159 -2.10514 3.5085666
-0.91957492 -2.1018753 3.5031257
-0.96525925 -2.0833988 3.4941859
-0.93854159 -2.0832114 3.5085666
-0.91375422 -2.0847111 3.5014553
-0.88274938 -2.0850575 3.4925611
-0.85363549 -2.0818145 3.4842083
-0.96525919 -2.0571923 3.4941862
-0.93854159 -2.0525117 3.5085666
-0.9161976 -2.0550137 3.5021565
-0.880952 -2.05475 3.4920452
-0.85363555 -2.0556827 3.4842083
-0.96525908 -2.026618 3.4941862
-0.93854159 -2.0261972 3.5085666
-0.91349369 -2.0245469 3.5013809
-0.88180792 -2.0255284 3.4922905
-0.85363549 -2.0251961 3.4842086
-0.96525925 -1.9960439 3.4941859
-0.93854159 -1.9954973 3.5085666
-0.91593814 -1.9948385 3.5020823
