# .PCD v0.7 - Point Cloud Data file format
VERSION 0.7
FIELDS x y z
SIZE 4 4 4
TYPE F F F
COUNT 1 1 1
WIDTH 725
HEIGHT 1
VIEWPOINT 0 0 0 1 0 0 0
POINTS 725
DATA ascii
0.39458591 -0.40071031 0.99800003
0.39739287 -0.39524388 0.99626935
0.43663633 -0.34677166 0.96859789
0.46258163 -0.25734165 0.98161507
0.48430127 -0.1783776 0.99368525
0.29623428 -0.42698666 1.0953925
0.33463195 -0.41257617 1.0599223
0.36072797 -0.35388181 1.0529126
0.40979868 -0.32802367 1.0099473
0.37810788 -0.25873643 1.0734659
0.42727542 -0.24331576 1.026561
0.39356014 -0.18094978 1.0916034
0.44880512 -0.14874721 1.0456239
0.50115526 -0.10271027 1.01
0.46954289 -0.05611591 1.0641352
0.50560182 -0.037801739 1.0325317
0.48551241 0.033071518 1.0839086
0.51269644 0.054117367 1.0632806
0.52478701 0.14192067 1.0857252
0.54355925 0.22042842 1.0948631
0.19348849 -0.46068543 1.1919454
0.24556714 -0.42865917 1.1488351
0.30211073 -0.40345776 1.101
0.26501971 -0.35494685 1.1576655
0.31311929 -0.33561569 1.1147804
0.28271008 -0.26133075 1.1791375
0.33201861 -0.24448168 1.1353501
0.2966871 -0.19113424 1.1965865
0.35650575 -0.15293175 1.1504437
0.40559855 -0.11671291 1.1085765
0.37824559 -0.058129672 1.1713701
0.42189309 -0.043211654 1.1254547
0.3924377 0.02039093 1.188272
0.4418166 0.052853312 1.1426414
0.46272898 0.14570387 1.1544229
0.51122975 0.16938484 1.1121696
0.47786742 0.24243553 1.1739695
0.52573121 0.25414929 1.1292971
0.49143672 0.31978679 1.189413
0.53540915 0.34951484 1.154847
0.54937261 0.42839208 1.165902
0.090327427 -0.50859785 1.2916709
0.11099409 -0.50469601 1.2714081
0.09613543 -0.48780432 1.2936925
0.15044783 -0.44755739 1.2486187
0.20295745 -0.41093707 1.2025955
0.17213912 -0.35669565 1.2636321
0.21786271 -0.33940414 1.2190022
0.18709092 -0.27091065 1.2850524
0.2374354 -0.24575143 1.2397342
0.26075247 -0.15356284 1.2548091
0.31445232 -0.12668738 1.2106993
0.27808771 -0.05931497 1.2767544
0.33089322 -0.045693006 1.229781
0.29217246 0.019729884 1.291943
0.35037515 0.050016519 1.2463373
0.40376136 0.086246401 1.2031724
0.36820251 0.14405078 1.263811
0.41417679 0.15988323 1.2159336
0.38411805 0.24037763 1.2814029
0.43022013 0.25438258 1.2310554
0.39452359 0.31421456 1.2947973
0.45008102 0.34976023 1.2452346
0.50548792 0.38608092 1.204203
0.46861592 0.44424066 1.2659441
0.51640218 0.44833642 1.220134
0.46904337 0.50420147 1.2925955
-0.0098936735 -0.53466785 1.3937486
0.035038099 -0.51825631 1.3494794
-0.00245116 -0.49072224 1.398
0.056033578 -0.45262232 1.3528614
0.10807536 -0.42325488 1.3091484
0.074400663 -0.35817826 1.3734574
0.12477189 -0.34276715 1.3250791
0.092125177 -0.28082037 1.3896224
0.14550881 -0.24698241 1.3455411
0.20235014 -0.20577514 1.3028334
0.16620108 -0.15497819 1.360948
0.21308847 -0.13709338 1.3169875
0.18218549 -0.058706172 1.3814969
0.23168603 -0.045121964 1.3325326
0.19441612 0.011329692 1.3954285
0.2511178 0.049067017 1.3496194
0.30504891 0.08142139 1.3057896
0.2705456 0.14330898 1.3686081
0.32029638 0.15976025 1.320075
0.28776109 0.23619397 1.3870212
0.33664256 0.2528969 1.3375872
0.29842871 0.30333102 1.398
0.35551238 0.34778175 1.352092
0.40712449 0.37897024 1.3075751
0.37196803 0.44473377 1.3724271
0.4209269 0.45723391 1.3234125
0.38519087 0.51948887 1.3880856
0.42476073 0.51584721 1.3440254
-0.10878798 -0.57220089 1.4883674
-0.058710847 -0.53624272 1.4487021
-0.037268046 -0.45440233 1.4548001
0.0089079812 -0.42832133 1.4139589
-0.020909186 -0.36056766 1.4780345
0.027687127 -0.34286898 1.4334689
-0.0042352444 -0.29315665 1.4949232
0.05240126 -0.25044733 1.4495127
0.10576772 -0.21349454 1.4086207
0.071757518 -0.15611669 1.4687929
0.11880488 -0.14065307 1.4211127
0.088382162 -0.063798733 1.4862953
0.13465343 -0.047239613 1.4398693
0.15764563 0.046923514 1.4526795
0.20708719 0.079115853 1.4095826
0.17573087 0.1424288 1.4733049
0.22341812 0.157959 1.4269582
0.19060433 0.22351789 1.4915757
0.24332218 0.25187355 1.445865
0.26555529 0.34512034 1.4587754
0.30935857 0.36934394 1.4156014
0.28289855 0.44113368 1.4785442
0.32319677 0.45508528 1.4325767
0.29343459 0.51783305 1.4937322
0.33696461 0.53884614 1.4509819
-0.21290956 -0.6165871 1.5857095
-0.17488877 -0.60774559 1.5488744
-0.20668465 -0.58150756 1.591445
-0.14958674 -0.54861277 1.5445063
-0.096424676 -0.51047212 1.5041251
-0.13108641 -0.45599779 1.5623361
-0.083866574 -0.43797633 1.516683
-0.11204045 -0.36906046 1.5820341
-0.065916114 -0.34443414 1.5378884
-0.040544797 -0.25375709 1.5513182
0.0076788645 -0.22692128 1.5115591
-0.02233641 -0.15620051 1.5723537
0.023633245 -0.14268284 1.528966
-0.0116478 -0.085679293 1.5909033
0.04316023 -0.048863534 1.545819
0.066076055 0.045738749 1.55582
0.111444 0.065119073 1.5136702
0.082367606 0.13892718 1.5739385
0.12860653 0.15557201 1.5310417
0.096481495 0.20973 1.5934666
0.15050411 0.24999137 1.5475451
0.20535041 0.28692493 1.5049993
0.17306668 0.34229159 1.5643923
0.21755934 0.35873044 1.5221872
0.19059476 0.434609 1.5838821
0.23547068 0.45295063 1.5407313
0.25878352 0.54777884 1.55058
0.30440885 0.57913142 1.5095853
0.26249346 0.6101765 1.5697029
0.3017469 0.60082346 1.523
-0.3142882 -0.64278984 1.688332
-0.26534268 -0.62485677 1.6422793
-0.30325991 -0.58344918 1.6950395
-0.24853867 -0.54883808 1.6514044
-0.19277148 -0.52174515 1.6037761
-0.22898279 -0.45510757 1.6682951
-0.1774112 -0.44073936 1.618464
-0.21252583 -0.37287223 1.6869072
-0.15653449 -0.34690887 1.6412764
-0.13537578 -0.25549522 1.6602029
-0.08640606 -0.23467907 1.614996
-0.11707833 -0.16064014 1.6830275
-0.069695167 -0.14582855 1.632862
-0.10473613 -0.088494733 1.694571
-0.049061794 -0.050256453 1.6470176
0.0027399897 -0.019180954 1.6029518
-0.03195934 0.04305457 1.6652304
0.016342971 0.056040231 1.6187202
-0.016727911 0.13581012 1.6868875
0.035768081 0.15429319 1.6383326
0.059717182 0.24614812 1.6529759
0.1075104 0.27363119 1.6093528
0.078552648 0.34344581 1.6739882
0.1264915 0.35693169 1.6248783
0.091314204 0.41839597 1.6937644
0.14649022 0.45068857 1.6418351
0.20211023 0.48281884 1.601
0.16583522 0.54570985 1.6589706
0.21319841 0.56283438 1.6117839
0.17911384 0.63067061 1.6793839
0.2196473 0.62404948 1.6283363
-0.42033443 -0.70609301 1.7856071
-0.41053101 -0.67211914 1.7889843
-0.3630659 -0.64253509 1.7448928
-0.34129128 -0.55201423 1.7548712
-0.29281095 -0.51471323 1.7130004
-0.32198539 -0.457596 1.7724648
-0.27643833 -0.44300315 1.7294165
-0.30869538 -0.38554767 1.7903219
-0.25284529 -0.34764877 1.747663
-0.19730262 -0.30492219 1.7050002
-0.23072238 -0.25612077 1.7649341
-0.18190621 -0.23732208 1.7218777
-0.21231075 -0.16996188 1.785287
-0.16302803 -0.14571859 1.7410976
-0.14082724 -0.053250853 1.7538935
-0.09300486 -0.022977814 1.7135783
-0.12241854 0.040849268 1.7709301
-0.078100212 0.058929324 1.7250127
-0.10851269 0.12593822 1.7886344
-0.060698118 0.15365639 1.7456902
0 0.19730261 1.705
-0.036647677 0.24489172 1.7593451
0.012148217 0.26391038 1.7156181
-0.019282607 0.33934212 1.7811364
0.029684776 0.35382336 1.7356584
-0.0070773303 0.40340781 1.794
0.053158313 0.44942811 1.7513511
0.10635039 0.48568341 1.7053646
0.073071398 0.54287326 1.7657745
0.11729114 0.55710769 1.7212275
0.08807008 0.6335274 1.7822733
0.129796 0.64794165 1.7408038
0.097509883 0.70458758 1.794
0.10914921 0.70320159 1.7840999
-0.51836348 -0.73018342 1.8859688
-0.47052044 -0.71601152 1.8401132
-0.50487888 -0.67859137 1.8907411
-0.45284402 -0.64885855 1.8453845
-0.39853966 -0.60255402 1.804
-0.43227926 -0.55368757 1.858863
-0.38806584 -0.53476 1.8180926
-0.41472489 -0.45856884 1.8788095
-0.36901888 -0.44421652 1.8319612
-0.40632999 -0.39264965 1.8898752
-0.34639245 -0.35136688 1.8488357
-0.29335031 -0.3193717 1.8070009
-0.32411018 -0.25659665 1.8713109
-0.27689642 -0.24101451 1.8245994
-0.30957258 -0.17996673 1.8887535
-0.25539204 -0.14735374 1.8440233
-0.19926983 -0.10121643 1.804
-0.23399052 -0.054474965 1.8574682
-0.18752201 -0.037459355 1.8136157
-0.21675977 0.042260163 1.8780389
-0.16948999 0.054639295 1.830268
-0.20427507 0.11209334 1.8905628
-0.1497861 0.15006393 1.8471324
-0.096867271 0.19412993 1.804
-0.1304473 0.24462147 1.8648735
-0.083343133 0.26049572 1.8192911
-0.11250397 0.33106145 1.8782372
-0.0651301 0.35468727 1.8344461
-0.10294521 0.41344124 1.8940001
-0.046014354 0.44698152 1.8518432
0.0096561862 0.47347891 1.8120741
-0.027464272 0.54184586 1.8707371
0.024361972 0.5537979 1.8251735
-0.010605386 0.62449807 1.8886375
0.041492835 0.65289211 1.8454258
0.043730505 0.71923018 1.862587
-0.61643773 -0.75128239 1.9798025
-0.56529641 -0.72975123 1.9331163
-0.60278285 -0.69713151 1.993
-0.54676449 -0.64990556 1.9501572
-0.49342805 -0.61716229 1.9077716
-0.52782583 -0.5582943 1.969501
-0.48128858 -0.54297882 1.920602
-0.51162899 -0.47411513 1.9837904
-0.46283975 -0.4483678 1.9398059
-0.43732533 -0.35373619 1.9524212
-0.38839829 -0.32340091 1.9135159
-0.4178066 -0.26211545 1.9770435
-0.37177992 -0.24351886 1.9325117
-0.40360242 -0.19437562 1.993
-0.34737995 -0.14992882 1.9463353
-0.29526126 -0.10936511 1.9072351
-0.32724357 -0.055023845 1.9637707
-0.28257751 -0.042983852 1.920675
-0.31129581 0.030953171 1.981203
-0.26535887 0.052550856 1.9387159
-0.30051783 0.1013374 1.993
-0.24148741 0.14804272 1.9514962
-0.19263136 0.17654614 1.9095
-0.22309415 0.24347027 1.9692935
-0.17796896 0.25698033 1.9231008
-0.20713446 0.32277989 1.9815001
-0.15648754 0.35371283 1.9375132
-0.13960704 0.44595301 1.9512678
-0.091458075 0.47720039 1.9125559
-0.12034688 0.54097122 1.9712536
-0.074295469 0.55676019 1.9286062
-0.10611518 0.62496841 1.9864478
-0.053753134 0.65346766 1.9445704
0.00066766934 0.68803322 1.9040002
-0.049659278 0.74042684 1.9579793
0.0037580512 0.73142171 1.9088124
-0.72451812 -0.81475383 2.0765636
-0.68565512 -0.8049835 2.0345001
-0.71424061 -0.76988512 2.0827277
-0.66409373 -0.74539202 2.0370188
-0.63961732 -0.65377587 2.048017
-0.59147483 -0.62005913 2.0062215
-0.62158322 -0.55764139 2.0673122
-0.5722872 -0.54137242 2.0227973
-0.60942531 -0.47665241 2.0870481
-0.55536264 -0.44780377 2.0459077
-0.49801975 -0.40193123 2.0050001
-0.52969748 -0.357077 2.0593035
-0.48322195 -0.33834496 2.0143776
-0.51364404 -0.26936841 2.0776019
-0.4644618 -0.24457043 2.0371215
-0.50203192 -0.19788118 2.0899999
-0.44092458 -0.1552745 2.0515709
-0.39030576 -0.12415466 2.009372
-0.4215965 -0.056371029 2.0685153
-0.37673986 -0.046042267 2.0226865
-0.40891424 0.01916454 2.0839131
-0.35573527 0.051292185 2.0380952
-0.33487099 0.1443705 2.055563
-0.2888912 0.16178364 2.0162838
-0.31515241 0.23889804 2.0731108
-0.2703793 0.25502011 2.0282586
-0.30369261 0.31651825 2.0900002
-0.25050834 0.35173976 2.0389888
-0.19686429 0.3890413 2.0050001
-0.23271112 0.44696879 2.05357
-0.18683332 0.46451667 2.0106943
-0.21835737 0.54049999 2.0704019
-0.16718417 0.55592573 2.0261514
-0.20616607 0.62452626 2.0864992
-0.15100916 0.65145916 2.0390844
-0.09667442 0.69957125 2.0050001
-0.95328486 0.79885375 2.0900002
-0.82916546 0.79494882 2.0829186
-0.75609624 0.79641575 2.0855854
-0.63881701 0.79829013 2.0851786
-0.58997911 0.7988537 2.0899999
-0.24102984 0.79649878 2.0836077
-0.14750971 0.74845141 2.0499947
-0.092193708 0.74182314 2.0054517
-1.0255491 0.82165861 2.0846055
-0.94992721 0.81056345 2.0679021
-0.85350645 0.80741566 2.0602651
-0.74958372 0.80819982 2.0650005
-0.64828843 0.81085992 2.0713866
-0.55155432 0.8134765 2.0754271
-0.45011434 0.81378055 2.0746751
-0.34998232 0.81157619 2.0741563
-0.25038975 0.80656111 2.0637565
-0.16524379 0.80781603 2.0625412
-0.82482183 -0.83263212 2.1784801
-0.77190131 -0.81943667 2.1258495
-0.81094176 -0.76721072 2.1938708
-0.75754619 -0.74445564 2.1439965
-0.69689208 -0.70057935 2.1029999
-0.7377407 -0.65431219 2.1614044
-0.68717474 -0.63589829 2.1115186
-0.72333199 -0.55900216 2.1838021
-0.67071652 -0.54464751 2.1325235
-0.70719469 -0.47405723 2.1972423
-0.65261406 -0.44751501 2.1484165
-0.58785456 -0.40454513 2.1029999
-0.63137776 -0.35431683 2.1642303
-0.57544237 -0.34215906 2.1156495
-0.61621261 -0.26191306 2.1872511
-0.55902731 -0.24616189 2.1422508
-0.5373475 -0.1517005 2.1578002
-0.48426932 -0.13178979 2.108094
-0.52104163 -0.058852706 2.1782081
-0.47023225 -0.047511954 2.1263926
-0.50779992 0.022149073 2.1944988
-0.45189711 0.050859168 2.1446302
-0.39760953 0.085421517 2.1030002
-0.43552575 0.14502954 2.1621144
-0.38125706 0.16281088 2.1118174
-0.41995388 0.24198514 2.1853051
-0.36315078 0.25393167 2.1328964
-0.40546304 0.31317413 2.1979997
-0.34561849 0.34865406 2.1474302
-0.29583168 0.38517678 2.1030002
-0.33033311 0.44406107 2.1648228
-0.28207988 0.45621276 2.114275
-0.31484392 0.54066318 2.1838012
-0.26640591 0.55403918 2.1308966
-0.30397928 0.65032881 2.1968558
-0.25256714 0.65430456 2.1455472
-0.19579351 0.69246739 2.1030002
-1.1191343 0.79044247 2.1860478
-1.0425228 0.78056312 2.1689014
-0.95051253 0.77863002 2.1550415
-0.85142756 0.78052729 2.1497908
-0.74943668 0.78164667 2.1533949
-0.65053433 0.78223717 2.1546912
-0.5527404 0.78640795 2.1594872
-0.44917771 0.78461963 2.1571345
-0.3464722 0.77942103 2.1557968
-0.25193325 0.75651211 2.1387067
-0.19439574 0.76086169 2.1029992
-1.1334927 0.82331991 2.1581948
-1.0632026 0.81530327 2.1194465
-0.95813286 0.80235261 2.1090262
-0.87838757 0.8016721 2.1036503
-0.72552258 0.80295521 2.1030002
-0.66417944 0.80287725 2.1029997
-0.5454812 0.80517381 2.1135783
-0.45204461 0.80581105 2.107173
-0.35100836 0.80484325 2.1092112
-0.28289253 0.80027282 2.1044443
-0.95192844 -0.90383101 2.286
-0.91966963 -0.85619903 2.2674594
-0.87552971 -0.83671576 2.2339549
-0.90658671 -0.78483999 2.2859998
-0.85373116 -0.74833399 2.2475238
-0.82790852 -0.65304875 2.2591197
-0.78548092 -0.63516682 2.2215974
-0.80856246 -0.56459218 2.2749856
-0.7683326 -0.54216641 2.2413764
-0.74840289 -0.4522568 2.2514987
-0.69669688 -0.41287047 2.2119999
-0.72592998 -0.35734984 2.2644181
-0.68137711 -0.34315577 2.2249179
-0.70973849 -0.27576482 2.2775629
-0.66089088 -0.24545097 2.2417591
-0.59726942 -0.2016754 2.2119999
-0.63439453 -0.15384491 2.2516243
-0.58734655 -0.1426286 2.2173736
-0.61767215 -0.064483508 2.2742426
-0.56808954 -0.045698997 2.2343955
-0.60282123 0.0032064959 2.286
-0.55030924 0.049076308 2.2514
-0.49643174 0.095020138 2.2119999
-0.52997386 0.1448947 2.2674682
-0.48328808 0.15999615 2.2223487
-0.5110957 0.2421021 2.2795036
-0.46809408 0.25387886 2.2408791
-0.50158757 0.30919781 2.2860003
-0.44545263 0.34608585 2.2508094
-0.39282379 0.37306252 2.2119992
-0.42310363 0.44280607 2.2692902
-0.37846652 0.46102628 2.2261612
-0.407877 0.53653526 2.2821293
-0.3619954 0.55317372 2.2405379
-0.35106504 0.64968389 2.2486048
-1.2092381 0.75964856 2.2767692
-1.1488957 0.76110923 2.2485526
-1.0524939 0.74885565 2.2477217
-0.94615436 0.74842954 2.2470148
-0.84925824 0.75212508 2.2479756
-0.75033581 0.74936938 2.246773
-0.6482501 0.7512393 2.2491915
-0.5471409 0.75664532 2.246788
-0.4494265 0.75305742 2.2464147
-0.35565478 0.7422232 2.2423549
-0.29863471 0.75434351 2.2119999
-1.1806247 0.80531257 2.2231114
-1.2305613 -0.92331135 2.3847542
-1.1491231 -0.91602761 2.3440845
-1.046044 -0.91279393 2.3303506
-0.98352313 -0.90968484 2.3165433
-1.2351408 -0.85049754 2.385848
-1.1447542 -0.84744614 2.3420959
-1.0479134 -0.8506285 2.3463495
-0.96810794 -0.84701586 2.330085
-1.2430547 -0.75563037 2.3928559
-1.148901 -0.74928671 2.3718328
-1.0525002 -0.75418156 2.3730133
-0.95174479 -0.74954569 2.3533006
-0.89278042 -0.71840322 2.3061197
-1.2468889 -0.67729729 2.3980031
-1.1398211 -0.65804142 2.3933756
-1.0671687 -0.66897964 2.3931172
-0.93500656 -0.65506035 2.3741734
-0.87831813 -0.64685524 2.3190591
-1.277034 -0.56987053 2.3979995
-1.1436223 -0.59703803 2.398
-0.91436446 -0.56060421 2.3936691
-0.8576231 -0.5465706 2.3367929
-0.84419936 -0.45064071 2.3603473
-0.78771299 -0.42207453 2.3094904
-0.82942486 -0.35731396 2.3814609
-0.77181131 -0.34280917 2.3247185
-0.81124198 -0.27109984 2.394762
-0.75375456 -0.2462652 2.3442698
-0.69571334 -0.20754851 2.3010004
-0.74078608 -0.15224735 2.3664286
-0.68487257 -0.13814659 2.3129022
-0.72299701 -0.057705265 2.3851767
-0.66265684 -0.045242749 2.3257039
-0.70962495 0.021489633 2.3980007
-0.64839584 0.047972109 2.3512022
-0.59074873 0.080394447 2.3053074
-0.63325375 0.14026444 2.3793607
-0.57707971 0.15795302 2.3262358
-0.61082828 0.23829086 2.3944664
-0.5582251 0.25071791 2.3361542
-0.54025978 0.34747338 2.3573821
-0.48818004 0.37696272 2.3117645
-0.52737749 0.44433892 2.3840024
-0.47124699 0.45480943 2.3244913
-0.50865608 0.53333551 2.3944831
-0.45555222 0.55111009 2.3418343
-1.2127627 0.69701141 2.398
-1.1487333 0.69269776 2.3944283
-1.0634868 0.69476759 2.3955216
-0.96654731 0.69629776 2.3968275
-0.86864823 0.69447732 2.3980005
-0.7321589 0.69341153 2.398001
-0.67652297 0.69594365 2.3979998
-0.50642008 0.66065866 2.3980005
-0.44999942 0.64887196 2.3538427
-0.39785582 0.65698987 2.3009996
-1.2346945 0.72449809 2.3652117
-1.1489962 0.71943289 2.339787
-1.047998 0.71689743 2.3434942
-0.9508723 0.719863 2.3463793
-0.85214204 0.72160536 2.3543639
-0.74778408 0.71922421 2.3483021
-0.64870119 0.72082287 2.3486843
-0.55085486 0.7211231 2.3455327
-0.45605102 0.72101325 2.3337514
-0.39397374 0.7196033 2.3072224
-1.3065802 -0.94741315 2.44136
-1.2820394 -0.92714435 2.4176147
-1.3026844 -0.88693404 2.4319999
-1.2815472 -0.85037977 2.4167449
-1.2687726 -0.71907222 2.4149992
-1.0152406 -0.71811932 2.4150007
-0.99929476 -0.7092452 2.415
-1.2486361 -0.63601917 2.4229085
-1.1628728 -0.62660593 2.4185734
-1.041633 -0.64067847 2.4347386
-0.98146403 -0.63893592 2.4306452
-1.3005524 -0.54154152 2.4319999
-1.2498486 -0.54912215 2.4445932
-1.1477371 -0.55113012 2.4449885
-1.0512937 -0.54980588 2.4622488
-0.96257436 -0.54928946 2.4495053
-1.304152 -0.432055 2.4432497
-1.2581956 -0.45682439 2.459116
-1.1488941 -0.4655101 2.4733183
-1.0689018 -0.46508342 2.4819477
-0.93558908 -0.45517513 2.4554076
-0.89377069 -0.43407285 2.4194529
-1.3091853 -0.34606177 2.4621649
-1.2844753 -0.35683611 2.471905
-0.91644013 -0.36537513 2.4703674
-0.87432277 -0.33845711 2.4387367
-1.311465 -0.24843407 2.4757912
-1.2910542 -0.26336542 2.4796824
-0.84992683 -0.24792203 2.4507012
-0.79604834 -0.20324638 2.415
-1.3148205 -0.1824695 2.4742005
-0.82762778 -0.1567724 2.4611487
-0.78926855 -0.1374232 2.4253826
-0.81204283 -0.071184397 2.4749198
-0.76993698 -0.044912104 2.4431796
-0.74631727 0.046611231 2.4528739
-0.69594568 0.085503481 2.4178333
-0.72310239 0.14206974 2.4699755
-0.67276746 0.16420467 2.4265187
-0.70511174 0.22855152 2.4840529
-0.65873587 0.25253433 2.4488413
-0.63128811 0.34423319 2.4570904
-0.58620656 0.36397591 2.4182291
-0.61601537 0.44329938 2.4777989
-0.57212013 0.45575044 2.4340873
-0.60428703 0.51010799 2.4850001
-0.55265838 0.55257142 2.4509504
-1.3096973 0.67976391 2.4745004
-1.2509687 0.68207091 2.4542036
-1.1495043 0.67604858 2.4498465
-1.0519228 0.68220603 2.4518445
-0.95304632 0.6841805 2.4522982
-0.84728158 0.68297732 2.4506836
-0.75156903 0.6818065 2.4516621
-0.65001035 0.68613154 2.4546354
-0.55158222 0.65618432 2.4449158
-0.49964738 0.60550487 2.415
-1.2607343 0.70535845 2.4213707
-1.0352863 0.70289373 2.415
-0.93254018 0.70223927 2.4383337
-0.8160491 0.70371342 2.4178338
-0.78757977 0.70289373 2.415
-0.63244492 0.70323318 2.4170592
-0.57062232 0.70397514 2.4166672
-1.0066018 -0.51051152 2.5039043
-0.99314618 -0.50706071 2.505111
-1.2318312 -0.41909629 2.5073512
-1.1535865 -0.42052317 2.507232
-1.0368843 -0.43837908 2.5156219
-0.98486763 -0.43717924 2.5128348
-1.2458433 -0.34872821 2.5250871
-1.1475145 -0.35078767 2.5267265
-1.0483876 -0.35044014 2.5369174
-0.9668504 -0.34423092 2.5347557
-1.3040317 -0.23986216 2.5188346
-1.2522435 -0.24913916 2.5477331
-1.1504431 -0.25081411 2.5660117
-1.0493429 -0.25058803 2.5728586
-0.94944435 -0.25181752 2.554831
-0.89087009 -0.23211159 2.508805
-1.3186799 -0.14275073 2.5218523
-1.2674843 -0.15579104 2.5688951
-1.1439379 -0.15726599 2.5969222
-1.0575749 -0.16071807 2.5971873
-0.93206507 -0.15456937 2.5747178
-0.87771994 -0.14250405 2.5236928
-1.32007 -0.04807831 2.5383899
-1.2832453 -0.058284752 2.5858085
-1.068185 -0.095658362 2.598
-0.91638559 -0.065060653 2.5938809
-0.85711664 -0.04637903 2.5362473
-1.3246045 0.048490535 2.5590508
-1.2910023 0.045519952 2.5961025
-0.83991939 0.046784028 2.55369
-0.78597659 0.069258854 2.5117311
-1.3406117 0.14288507 2.5759766
-0.8253696 0.14545061 2.5796289
-0.77031821 0.1560135 2.5258605
-1.3631351 0.23990417 2.591666
-0.80761296 0.22303417 2.5979998
-0.75094986 0.25023499 2.5432131
-0.69778627 0.29623005 2.503
-1.3729918 0.31308386 2.5979996
-0.7381078 0.34435371 2.5666406
-0.68288326 0.35775045 2.5208309
-0.72024012 0.44340113 2.5844927
-0.66674203 0.44923955 2.5396409
-0.71093029 0.53718352 2.598
-0.64945966 0.5527721 2.5497708
-0.59387457 0.57333869 2.5036781
-1.3354213 0.64595431 2.5593114
-1.2476327 0.64297664 2.543092
-1.1495695 0.64695865 2.5548668
-1.0514402 0.65142077 2.5556986
-0.9506014 0.65390491 2.5526562
-0.8484087 0.65007961 2.5492177
-0.75098842 0.64780509 2.5501552
-0.65419757 0.6455425 2.5433111
-0.59211105 0.64905918 2.506166
-1.0029645 -0.2088553 2.618
-0.98821026 -0.20983891 2.618
-1.2293251 -0.13598026 2.6193964
-1.1568929 -0.12370273 2.6179996
-1.0306873 -0.13223903 2.6201527
-0.98144966 -0.14439934 2.6262732
-1.2400389 -0.0484972 2.635401
-1.1472721 -0.049726982 2.6316106
-1.0459731 -0.050972693 2.6414816
-0.96444243 -0.047131468 2.6449986
-1.3054603 0.042689107 2.618
-1.2551662 0.046261441 2.6536248
-1.1486938 0.048114281 2.6728704
-1.0542314 0.042634074 2.6756194
-0.94542307 0.039369989 2.6644862
-0.88949507 0.060989592 2.6193392
-1.3198607 0.16581294 2.6223979
-1.2796446 0.14175774 2.6544311
-1.1404312 0.11441901 2.6800001
-0.91846204 0.13416842 2.6778977
-0.87492406 0.15270288 2.6378384
-1.3319176 0.25442117 2.646848
-1.2910511 0.23797318 2.6753311
-0.8449468 0.2479907 2.6461616
-1.3569565 0.34991908 2.6467016
-0.82448357 0.34365484 2.6591339
-0.7837829 0.360679 2.621474
-1.4039989 0.4547486 2.642154
-1.381272 0.44742534 2.6565359
-0.8111816 0.42763394 2.6778462
-0.76701409 0.45485803 2.6407475
-1.407774 0.55238199 2.6656744
-1.3709416 0.55531532 2.674587
-1.2596419 0.59293985 2.6800001
-1.1813118 0.5962947 2.6800001
-0.93038887 0.59676456 2.6800001
-0.84134984 0.58318883 2.6788325
-0.75139374 0.54802185 2.647264
-1.4091198 0.60710204 2.6600873
-1.3467357 0.61181873 2.6390183
-1.2491271 0.61377609 2.6508789
-1.1511905 0.61491269 2.6458442
-1.0450256 0.6178177 2.6421664
-0.94960618 0.61784875 2.6478832
-0.85160285 0.61449164 2.6443956
-0.75376964 0.61467367 2.6385067
-0.69771445 0.62656593 2.618
-1.2223982 0.081297085 2.701
-1.1645217 0.098503672 2.701
-1.0240968 0.084318168 2.7023258
-0.97740716 0.072294682 2.7032006
-1.2405916 0.15809828 2.7201624
-1.1481978 0.14969622 2.7062249
-1.0458425 0.15092096 2.7147253
-0.96595502 0.15406775 2.7303131
-1.2530652 0.2512103 2.7433059
-1.147558 0.24976246 2.754741
-1.048382 0.24884729 2.7600191
-0.95758927 0.25050089 2.7611763
-0.88843465 0.26914731 2.7040186
-1.3183343 0.36097839 2.71017
-1.2629478 0.3436777 2.7651851
-1.1468059 0.34247422 2.781693
-1.0558528 0.34187645 2.7839704
-0.93602914 0.34416422 2.7758112
-0.8727234 0.35629117 2.7227132
-1.3314836 0.45340472 2.726794
-1.2756454 0.45018065 2.7803013
-1.1173756 0.43276912 2.7889998
-1.0709202 0.40281755 2.7889998
-0.91267669 0.45355767 2.7887225
-0.85591 0.45596534 2.7369416
-1.3298261 0.54497451 2.7273614
-1.260121 0.56317335 2.7591891
-1.1463091 0.57987565 2.7543564
-1.0509206 0.58048731 2.7520225
-0.94614702 0.5771361 2.7517633
-0.85413378 0.55373889 2.7351253
-1.1339122 0.60329753 2.7066443
-1.0537019 0.60370249 2.7031987
-0.98503667 0.60144073 2.701
-0.89505732 0.60144067 2.701
-1.2276369 0.3791028 2.819859
-1.1513929 0.3911095 2.8119984
-1.022318 0.3753565 2.8143868
-0.97923946 0.35863739 2.8190722
-1.2366399 0.44937965 2.8339286
-1.1477699 0.452021 2.8225551
-1.0498697 0.45238137 2.8292434
-0.96751606 0.45069349 2.838398
-1.2390171 0.54145664 2.8391545
-1.1524912 0.53369606 2.8318183
-1.0449824 0.53197795 2.8296382
-0.96338445 0.53794557 2.8400176
