# .PCD v0.7 - Point Cloud Data file format
VERSION 0.7
FIELDS x y z
SIZE 4 4 4
TYPE F F F
COUNT 1 1 1
WIDTH 1510
HEIGHT 1
VIEWPOINT 0 0 0 1 0 0 0
POINTS 1510
DATA ascii
-0.38848084 -1.0548105 2.8598011
-0.40945384 -0.94489557 2.8328826
-0.39384538 -0.96265864 2.8792412
-0.41684759 -0.84805834 2.847266
-0.39814872 -0.88678002 2.895627
-0.42813349 -0.74960369 2.8489408
-0.44027328 -0.64982057 2.8482189
-0.45185837 -0.54955965 2.8496068
-0.46378008 -0.4499256 2.8495772
-0.47586212 -0.35024905 2.8490086
-0.50288016 -0.21629293 2.8111851
-0.48615417 -0.25341961 2.8534286
-0.50743723 -0.14355169 2.8254199
-0.49248981 -0.15592828 2.8717182
-0.51382101 -0.050422575 2.8417575
-0.49753404 -0.066237114 2.8912554
-0.52362162 0.048338629 2.8486552
-0.53575957 0.1507884 2.8490479
-0.54739338 0.24937321 2.849571
-0.55922705 0.34964097 2.8501058
-0.55322695 0.45856312 2.84343
-0.45029315 0.47331339 2.8479705
-0.35017991 0.47346887 2.8475904
-0.25005847 0.47331312 2.8479705
-0.15037949 0.47331288 2.8479705
-0.052095879 0.47366285 2.8471184
0.048533767 0.47363874 2.8471775
0.15037945 0.47331315 2.84797
0.25005841 0.47331321 2.8479717
0.35017982 0.4734686 2.8475921
0.45029312 0.47331324 2.84797
0.54996085 0.47358665 2.8473115
0.64963096 0.47331575 2.8479855
0.75018883 0.47353703 2.8474445
0.85075086 0.47331566 2.8479841
0.94998616 0.47343281 2.847724
1.0496558 0.4734309 2.8477333
1.149771 0.47363591 2.8472364
1.2494335 0.47331956 2.8480113
1.3495615 0.47334361 2.8479571
1.4501253 0.47338787 2.8478489
1.5511016 0.47358561 2.8473675
1.6516864 0.47332013 2.8480144
1.7509284 0.47348136 2.8476229
1.8496938 0.47343457 2.8477361
1.9493645 0.47347543 2.8476343
2.0499179 0.47343194 2.8477397
2.1504831 0.4733879 2.8478498
2.2403421 0.47010863 2.8558488
2.3060884 0.45543441 2.8916471
-0.27877524 -1.738741 2.9558239
-0.30372053 -1.6233103 2.9175131
-0.28842771 -1.6555321 2.9568391
-0.30937329 -1.5464087 2.9296901
-0.29353631 -1.5570858 2.9797432
-0.31671199 -1.4471397 2.9452662
-0.29936981 -1.4743764 2.9936986
-0.32707444 -1.3512281 2.9490626
-0.33927488 -1.2491745 2.9490745
-0.35143164 -1.1470937 2.9492378
-0.36305144 -1.0495048 2.9494038
-0.37516007 -0.94951266 2.9488771
-0.40150926 -0.81758326 2.9125314
-0.38563234 -0.8537181 2.9522491
-0.40726441 -0.74411249 2.9229407
-0.39174125 -0.75454736 2.9720197
-0.41298658 -0.64801365 2.9427667
-0.39634126 -0.66926724 2.991255
-0.42251277 -0.55065459 2.9500408
-0.4350436 -0.44968587 2.9484639
-0.44668362 -0.35076347 2.9491098
-0.45832142 -0.24990816 2.9505591
-0.47114521 -0.14975682 2.9476342
-0.50059217 -0.014506789 2.9019837
-0.48163056 -0.052850887 2.9514227
-0.50478458 0.059304662 2.9179225
-0.48978943 0.043142963 2.9628317
-0.51100379 0.15356597 2.9352915
-0.49512342 0.13718258 2.9831448
-0.51849639 0.25139278 2.9497435
-0.53046656 0.35024539 2.9492257
-0.52911091 0.42816508 2.9401395
-0.44989112 0.43132326 2.9504032
-0.35032064 0.43157554 2.9497876
-0.25029808 0.43124446 2.9505932
-0.1498269 0.43169767 2.9494889
-0.051632084 0.43132222 2.9504032
0.047944076 0.43132237 2.9503999
0.14982685 0.43169737 2.9494894
0.25029817 0.43124473 2.950593
0.35032064 0.43157533 2.9497879
0.4498913 0.43132317 2.9504006
0.54991305 0.43144599 2.9501019
0.64994073 0.43152466 2.9499104
0.74996686 0.43154633 2.9498589
0.8500011 0.43122187 2.9506516
0.95001888 0.43154651 2.9498601
1.0500458 0.4315246 2.9499104
1.1500775 0.43144593 2.9501035
1.2505616 0.43149686 2.9499815
1.350137 0.43140385 2.9502273
1.4497095 0.43124685 2.9506087
1.5501666 0.43170184 2.9495173
1.6502789 0.43173102 2.9494627
1.7497587 0.43092537 2.9514267
1.8498293 0.43170339 2.9495289
1.9503218 0.43150303 2.9500241
2.0503435 0.43132854 2.950453
2.1494491 0.4314577 2.9501402
2.2490218 0.43150407 2.9500253
2.3329592 0.42615399 2.9630778
-0.23713154 -1.8219547 3.0647762
-0.2500771 -1.7503695 3.0497012
-0.26225409 -1.6507889 3.0487661
-0.27413151 -1.5501626 3.0493052
-0.30086884 -1.4253397 3.0086882
-0.28426823 -1.453158 3.0543261
-0.30736241 -1.3422867 3.0205083
-0.29142666 -1.3555341 3.0698459
-0.31233793 -1.2419211 3.0446572
-0.29641068 -1.2809657 3.0833657
-0.32235515 -1.1494511 3.0482264
-0.33385196 -1.0501984 3.0494978
-0.34602427 -0.9503004 3.0487144
-0.35775208 -0.84939086 3.0498767
-0.36985484 -0.75018507 3.0490482
-0.38178098 -0.65046394 3.0490389
-0.40471628 -0.53331965 3.0183454
-0.38940254 -0.55627126 3.0615578
-0.41063204 -0.4442915 3.0345998
-0.3948907 -0.46448302 3.0804119
-0.41803816 -0.34894469 3.0483334
-0.42930964 -0.25025979 3.0501461
-0.44145003 -0.15058318 3.0493793
-0.4533869 -0.052289583 3.0487418
-0.46539095 0.0483605 3.048852
-0.47764304 0.15099141 3.0489168
-0.50328469 0.27008215 3.009711
-0.48720106 0.2472083 3.0556073
-0.50835639 0.35342914 3.0257218
-0.46162638 0.36948878 3.069119
-0.34966338 0.38335472 3.0674119
-0.24997257 0.38335463 3.0674102
-0.15028192 0.38335547 3.0674162
-0.052196912 0.38363582 3.0667334
0.048358906 0.38361487 3.066782
0.15028192 0.38335559 3.0674162
0.249973 0.38335529 3.0674162
0.34966403 0.3833555 3.0674162
0.4493551 0.38335535 3.0674152
0.54904616 0.38335523 3.0674164
0.64949787 0.38353267 3.0669832
0.74994779 0.38335556 3.0674169
0.84963864 0.38335532 3.0674164
0.95009559 0.38344496 3.0671985
1.0505475 0.3833552 3.0674155
1.1502384 0.38335523 3.067416
1.2499098 0.383717 3.0665336
1.3495916 0.38335541 3.0674157
1.449283 0.38335535 3.0674164
1.548974 0.38335538 3.0674157
1.6486652 0.3833555 3.0674164
1.7483563 0.3833555 3.0674167
1.8488238 0.38353261 3.0669837
1.9500229 0.38344479 3.067198
2.0504792 0.38335627 3.0674214
2.1501708 0.38335618 3.0674214
2.2498617 0.38335606 3.0674214
2.3495727 0.38335937 3.0674491
2.4272521 0.38104752 3.0731137
-0.51128721 0.40419856 3.0164697
-0.45076811 0.40353474 3.0181909
-0.34898448 0.40374544 3.0176766
-0.2489796 0.40364009 3.0179336
-0.15089671 0.40364009 3.0179336
-0.052813858 0.40364009 3.0179336
0.049041439 0.40364015 3.0179336
0.15089671 0.40364006 3.0179338
0.24897963 0.40364009 3.0179338
0.34898448 0.40374544 3.0176766
0.45076811 0.40353474 3.0181909
0.55077308 0.40364009 3.0179338
0.64885598 0.40364018 3.0179336
0.7488268 0.40374544 3.0176768
0.8506785 0.40353474 3.0181909
0.95064938 0.40364009 3.0179336
1.0505946 0.40374544 3.0176766
1.1505789 0.40364009 3.0179336
1.2486619 0.40364009 3.0179336
1.3486801 0.4035348 3.0181909
1.4504368 0.40374544 3.0176768
1.5504551 0.40364003 3.0179338
1.6485381 0.40364015 3.0179338
1.7503934 0.40364015 3.0179338
1.8522487 0.40364009 3.0179336
1.9503546 0.40364486 3.0179701
2.0484471 0.40364659 3.0179834
2.1484404 0.40375194 3.0177264
2.2502522 0.40354103 3.0182405
2.3502455 0.40364659 3.0179834
2.4061651 0.4026984 3.0202959
-0.19346881 -1.9056375 3.1804905
-0.21348463 -1.8387061 3.1391819
-0.19708201 -1.8596975 3.1869438
-0.22134788 -1.7507989 3.1482868
-0.23290282 -1.6509542 3.149605
-0.24522151 -1.5495709 3.148927
-0.25682735 -1.4504621 3.1497698
-0.26907414 -1.3504652 3.1487715
-0.28071073 -1.2499038 3.1501002
-0.30525076 -1.1372285 3.1120503
-0.28952435 -1.1503121 3.1607342
-0.30941349 -1.0432215 3.1363769
-0.29418218 -1.0631191 3.1805627
-0.3172994 -0.94949275 3.1477976
-0.32839316 -0.84999651 3.1505527
-0.34108216 -0.74983031 3.1481078
-0.35256019 -0.64864939 3.1502397
-0.3648251 -0.55015665 3.1485574
-0.37657678 -0.4495742 3.1495054
-0.40384415 -0.3261604 3.1064935
-0.38687572 -0.35320583 3.1537104
-0.40776056 -0.24254152 3.1274004
-0.39215979 -0.25873673 3.1743774
-0.41475385 -0.14644916 3.1428537
-0.39800844 -0.17066494 3.1904662
-0.42415661 -0.051011499 3.1497538
-0.43592295 0.046898 3.1495569
-0.44818553 0.15004632 3.1497953
-0.46059033 0.25043356 3.1484158
-0.45035404 0.34143937 3.1440678
-0.35023022 0.35014322 3.1483686
-0.25055057 0.35047233 3.1475646
-0.14954762 0.35014638 3.1483717
-0.051161412 0.35014901 3.1483967
0.047225948 0.35014874 3.1483951
0.14954877 0.35014871 3.1483934
0.25055414 0.35047716 3.1476111
0.35023612 0.35014924 3.148422
0.44993904 0.35023376 3.1482158
0.55027199 0.35027158 3.1481233
0.65063745 0.3503958 3.1478202
0.74965489 0.35002741 3.1487193
0.84937108 0.3503536 3.1479239
0.9497003 0.35006836 3.1486189
1.0500593 0.35027152 3.1481235
1.1504012 0.35031447 3.1480186
1.2501105 0.35031289 3.1480229
1.35044 0.3503536 3.1479239
1.4508188 0.34982643 3.1492097
1.5491389 0.3504847 3.1476028
1.648873 0.35015127 3.1484172
1.7505586 0.35035336 3.1479235
1.8502257 0.35027257 3.1481206
1.9499236 0.35003039 3.1487119
2.0502682 0.35047802 3.1476192
2.1499567 0.34998858 3.148814
2.2496541 0.3503145 3.1480191
2.3499997 0.35027155 3.1481235
2.4485216 0.349857 3.1491344
2.5161941 0.34040806 3.1721845
-0.16828956 -1.9289986 3.2574365
-0.20006144 -1.800553 3.200983
-0.17952171 -1.8506765 3.2510192
-0.20331016 -1.7405967 3.2144921
-0.18726724 -1.7542907 3.2640164
-0.20947516 -1.6450789 3.232558
-0.19385207 -1.658573 3.2807219
-0.21685065 -1.5474005 3.2473533
-0.19773106 -1.5900831 3.2955177
-0.22824426 -1.449119 3.2485845
-0.23989281 -1.3485835 3.2498605
-0.25235254 -1.2467952 3.248868
-0.26363412 -1.1495395 3.2500558
-0.27579272 -1.0509998 3.2487633
-0.30447906 -0.91743636 3.2050428
-0.28653109 -0.95243007 3.2523665
-0.30688837 -0.84152532 3.2279661
-0.29193106 -0.861081 3.2713423
-0.31355032 -0.74822295 3.2434185
-0.29630309 -0.77365631 3.2922566
-0.3231819 -0.6520223 3.2498488
-0.33567986 -0.55033076 3.2486796
-0.34714529 -0.44974861 3.2506154
-0.35978824 -0.34967351 3.2482784
-0.37139285 -0.24974571 3.2494628
-0.4005264 -0.11614555 3.2042112
-0.38237411 -0.1530131 3.2514732
-0.4051567 -0.044844989 3.2176077
-0.38982511 -0.056515396 3.265517
-0.41108182 0.055304538 3.2384121
-0.39488676 0.026722465 3.2823296
-0.41903046 0.15031709 3.2501349
-0.42976493 0.25282016 3.2515025
-0.34958512 0.291996 3.2902131
-0.25087872 0.29199603 3.2902126
-0.15217233 0.29199603 3.2902126
-0.053465955 0.291996 3.2902136
0.049353193 0.291996 3.2902131
0.15217233 0.291996 3.2902131
0.25087869 0.291996 3.2902133
0.34958512 0.291996 3.2902133
0.44829148 0.291996 3.2902131
0.54907626 0.29213125 3.2898827
0.64980668 0.291996 3.2902133
0.7505722 0.29186267 3.2905629
0.85134673 0.29199755 3.2902293
0.95005238 0.2919971 3.2902248
1.0507973 0.29213521 3.2899256
1.1515843 0.29200119 3.2902689
1.2502923 0.29200125 3.2902689
1.3490003 0.29200119 3.2902689
1.4477085 0.29200113 3.2902689
1.5505295 0.29200119 3.2902689
1.6533506 0.29200122 3.2902689
1.7520584 0.29200122 3.2902689
1.8507664 0.29200119 3.2902689
1.9494747 0.29200113 3.2902689
2.0481825 0.29200119 3.2902689
2.1489732 0.29213646 3.2899389
2.2497015 0.29200116 3.2902689
2.3504598 0.291866 3.2905986
2.4512408 0.29200122 3.2902689
2.5499487 0.29200125 3.2902689
2.6143451 0.29151815 3.2914481
-0.42572278 0.31527761 3.2294576
-0.34921214 0.31509125 3.2338736
-0.24899502 0.31550929 3.2328544
-0.14955468 0.3151978 3.2336142
-0.052546233 0.31519768 3.2336142
0.048504215 0.31519768 3.2336156
0.14955467 0.31519774 3.233614
0.2489955 0.31550968 3.2328598
0.34921417 0.31509313 3.2338936
0.44944555 0.31530178 3.2333846
0.54969311 0.31520027 3.2336276
0.64993405 0.31540903 3.2331498
0.74936324 0.31520313 3.2336721
0.84879863 0.31520215 3.2336755
0.94985062 0.31520414 3.233669
1.0500764 0.31541386 3.2331579
1.149523 0.31531069 3.2334089
1.2497489 0.31509796 3.2339272
1.3508023 0.31531 3.2334104
1.450207 0.31541628 3.233151
1.5480399 0.31520322 3.2336714
1.6490921 0.3152031 3.2336698
1.7501445 0.31520316 3.2336719
1.8495958 0.31551468 3.2329121
1.9498017 0.31509662 3.2339315
2.050041 0.31530523 3.2334237
2.1502872 0.31520414 3.2336683
2.2497222 0.31530792 3.2334146
2.3491418 0.31531072 3.2334075
2.4493852 0.31520215 3.233674
2.5422628 0.31350699 3.2378073
2.6043892 0.30207649 3.2656918
-0.12290254 -2.0147059 3.3782361
-0.13898182 -1.9501988 3.349479
-0.15093766 -1.8499464 3.3495893
-0.16284078 -1.750223 3.3496602
-0.17488027 -1.6500621 3.3494382
-0.20637055 -1.5023776 3.3019288
-0.18627602 -1.5511339 3.3509309
-0.20628552 -1.4404883 3.3276184
-0.19158469 -1.4594139 3.3703768
-0.21246693 -1.348137 3.3443298
-0.19503866 -1.377972 3.3919771
-0.22323421 -1.2496215 3.34781
-0.23446214 -1.1487513 3.3506665
-0.24671166 -1.049181 3.3494823
-0.25882107 -0.95016927 3.3485537
-0.27055237 -0.84993607 3.3494232
-0.28254813 -0.74974269 3.349371
-0.30524102 -0.63121319 3.3200774
-0.28983194 -0.65747166 3.3622527
-0.31068751 -0.54634815 3.336236
-0.29456908 -0.56032366 3.3859076
-0.31827712 -0.45033017 3.3496146
-0.33033046 -0.35089618 3.3490438
-0.34199518 -0.25065938 3.3501544
-0.35447416 -0.14935502 3.3488901
-0.36595485 -0.051721338 3.3495507
-0.37862247 0.048455495 3.3471735
-0.40515885 0.17366379 3.3074191
-0.38767594 0.14577506 3.3560572
-0.40723196 0.24367023 3.3270802
-0.35799396 0.25966156 3.3535328
-0.25032163 0.26784465 3.3491282
-0.14984784 0.26784465 3.3491285
-0.051972654 0.26821265 3.3482296
0.047781311 0.26818308 3.3483012
0.14984784 0.26784465 3.3491282
0.25032163 0.26784474 3.3491285
0.35079539 0.26784477 3.3491282
0.45126924 0.26784462 3.3491282
0.55091542 0.2680833 3.3485446
0.65052527 0.26784465 3.3491278
0.75099897 0.26784468 3.3491273
0.85064298 0.26796269 3.3488398
0.95026338 0.26784465 3.3491278
1.0507402 0.26784539 3.349138
1.1503763 0.26808608 3.3485782
1.2500041 0.26784694 3.3491578
1.3504783 0.26784697 3.3491569
1.4509584 0.2678479 3.3491685
1.552231 0.26807797 3.3486307
1.6527842 0.26808819 3.3486052
1.750699 0.26796827 3.348897
1.8494771 0.26784939 3.3491886
1.9499527 0.26784939 3.3491879
2.0504282 0.26784945 3.3491881
2.1509035 0.26784942 3.3491893
2.2505419 0.26808804 3.3486056
2.3501637 0.2678495 3.3491876
2.450639 0.26784939 3.3491879
2.5502796 0.26796749 3.3488996
2.6397827 0.26535833 3.3552639
-0.10661221 -2.0269377 3.4292173
-0.090056919 -2.0500054 3.4766479
-0.1131017 -1.9449418 3.4406095
-0.095942751 -1.9711423 3.4888272
-0.12153515 -1.8491359 3.4509935
-0.13436554 -1.7489482 3.4480748
-0.1458427 -1.6504827 3.4490912
-0.15733533 -1.5495949 3.4510491
-0.17030059 -1.4500942 3.4473767
-0.18138383 -1.3502382 3.4503257
-0.2054266 -1.2424736 3.4119661
-0.1898175 -1.2557552 3.4601653
-0.21137252 -1.1434742 3.4322128
-0.19575641 -1.1667936 3.4763112
-0.21682569 -1.050655 3.4516137
-0.22992846 -0.95017457 3.4478793
-0.24140395 -0.84947234 3.4498188
-0.25360793 -0.74943995 3.4489779
-0.26542535 -0.65040022 3.4490709
-0.27734706 -0.55003804 3.4493372
-0.30524001 -0.41095755 3.4106171
-0.28775606 -0.45494428 3.4526417
-0.30735099 -0.34440678 3.4307089
-0.29191694 -0.35771945 3.4782941
-0.31475812 -0.24715959 3.445225
-0.29692578 -0.27944601 3.4932446
-0.32544759 -0.14958473 3.4485841
-0.33665788 -0.052109666 3.4501095
-0.34905216 0.047420416 3.4484069
-0.3610734 0.14972411 3.4491339
-0.34470767 0.22711521 3.4399164
-0.25052556 0.22831881 3.4455459
-0.15005523 0.22842397 3.4452906
-0.051688954 0.22816098 3.445931
0.047381543 0.22816096 3.4459317
0.15005524 0.22842394 3.4452889
0.25052553 0.22831878 3.4455464
0.35031721 0.22826841 3.4456687
0.45007479 0.22810723 3.4460633
0.54987127 0.22837329 3.4454129
0.6503703 0.2281602 3.4459324
0.75086039 0.22847918 3.4451549
0.85065144 0.22799976 3.4463246
0.95042193 0.22847924 3.4451563
1.050926 0.2281602 3.4459331
1.1507043 0.22842862 3.4452784
1.2497735 0.22832559 3.4455297
1.3495481 0.22794726 3.4464531
1.449302 0.22864473 3.4447515
1.5505434 0.22816202 3.4459455
1.6496139 0.22816205 3.4459448
1.7486895 0.22816253 3.4459536
1.8499373 0.22864839 3.4448073
1.95041 0.22811104 3.4461195
2.0502028 0.22816798 3.4459836
2.1499798 0.22821541 3.445864
2.2504787 0.22854137 3.4450765
2.3495517 0.22832635 3.4456005
2.4493406 0.22826919 3.4457402
2.5498242 0.22816879 3.4459851
2.6496048 0.22821657 3.445869
2.7313881 0.22245292 3.4599285
-0.055643283 -2.1232741 3.5648401
2.7986639 -2.1597407 3.5995677
2.8432693 -2.136754 3.5937188
-0.06874866 -2.0500889 3.5498643
-0.08070562 -1.9498075 3.5499778
-0.10536958 -1.8351413 3.5123191
-0.089867868 -1.8538349 3.5579329
-0.11141349 -1.745563 3.5283718
-0.095258556 -1.7595123 3.5781724
-0.11791416 -1.6454428 3.5471718
-0.09885215 -1.6894683 3.5946236
-0.12860195 -1.5503038 3.549536
-0.1410964 -1.4507518 3.547508
-0.15228318 -1.349053 3.5508513
-0.16456592 -1.2504014 3.5491741
-0.1763027 -1.1527953 3.5489447
-0.20187955 -1.0313052 3.5109487
-0.18564978 -1.0529399 3.5578508
-0.20810238 -0.94462442 3.525192
-0.19216464 -0.95558089 3.5754783
-0.21467215 -0.84675151 3.5428371
-0.19746779 -0.87512052 3.5903234
-0.22380646 -0.75044334 3.5510182
-0.23722622 -0.64944232 3.5464034
-0.24804807 -0.55005479 3.5500534
-0.25991824 -0.44952625 3.5505636
-0.27224827 -0.35016838 3.5490234
-0.28437141 -0.2497199 3.5486298
-0.3052814 -0.13791811 3.5227039
-0.28977314 -0.15985017 3.5670061
-0.31142274 -0.049689088 3.5378587
-0.29505214 -0.066333346 3.5872941
-0.31973121 0.048548818 3.5496693
-0.32851645 0.15475135 3.5472264
-0.25018117 0.18254229 3.5572112
-0.15120873 0.18227968 3.5578511
-0.053367779 0.18227971 3.5578506
0.048920464 0.18227965 3.5578513
0.15120871 0.18227968 3.5578513
0.25018114 0.18254225 3.5572112
0.35020879 0.18236846 3.5576355
0.45027208 0.18219279 3.5580649
0.55035216 0.18254228 3.5572112
0.65038681 0.1820152 3.5584974
0.75044268 0.18236847 3.5576363
0.85053504 0.18254229 3.5572104
0.95055765 0.18219276 3.5580652
1.0506498 0.18236843 3.5576348
1.1507061 0.18254228 3.5572104
1.2496353 0.18227972 3.5578504
1.3486187 0.1820152 3.5584979
1.450847 0.18253291 3.5572352
1.5520525 0.18227966 3.5578513
1.6498935 0.18227963 3.5578518
1.7488919 0.18254228 3.5572131
1.8500051 0.18228155 3.5578461
1.9511722 0.18201517 3.5584962
2.0512547 0.18254225 3.5572124
2.1513016 0.18236847 3.5576363
2.2502658 0.18228044 3.5578642
2.3503575 0.18245383 3.557476
2.450402 0.18228167 3.5578902
2.5493753 0.18237077 3.5576799
2.6505311 0.1822802 3.5579011
2.7506115 0.18228287 3.5579162
2.8241 0.17874824 3.5665429
-0.32901362 0.20179743 3.509521
-0.25009838 0.20183375 3.5101523
-0.14918149 0.20183375 3.5101523
-0.052652285 0.20183375 3.5101523
0.048264593 0.20183375 3.5101523
0.14918149 0.20183375 3.5101523
0.25009838 0.20183375 3.5101523
0.35101527 0.20183375 3.5101523
0.44754443 0.20183375 3.5101523
0.54846132 0.20183375 3.5101523
0.64937818 0.20183375 3.5101523
0.75029504 0.20183375 3.5101523
0.85121191 0.20183375 3.5101523
0.94774121 0.20183375 3.5101523
1.0486579 0.20183375 3.5101523
1.1495749 0.20183375 3.5101523
1.2504919 0.20183375 3.5101523
1.3514086 0.20183375 3.5101523
1.4479378 0.20183375 3.5101523
1.5488547 0.20183375 3.5101523
1.6497717 0.20183375 3.5101523
1.7506884 0.20183375 3.5101523
1.8516054 0.20183375 3.5101523
1.9481345 0.20183375 3.5101523
2.0490515 0.20183375 3.5101523
2.1499684 0.20183375 3.5101523
2.2509098 0.20183593 3.5101905
2.3518455 0.20183752 3.5102179
2.4483769 0.20183752 3.5102179
2.5492957 0.20183752 3.5102177
2.6502142 0.20183752 3.5102179
2.751133 0.20183752 3.5102177
-0.0092231128 -2.2089338 3.6892452
2.4674509 -2.2101433 3.6917188
2.5232511 -2.2039886 3.6752324
-0.027113341 -2.1445675 3.6541679
2.4842675 -2.1880021 3.6950688
2.5572767 -2.1595736 3.6818492
2.6485023 -2.144089 3.6571112
2.7478714 -2.1357291 3.6266615
2.821713 -2.1199133 3.6079645
-0.040326107 -2.048538 3.6482141
2.5914922 -2.0922976 3.697731
2.6617844 -2.0645072 3.685164
2.7502577 -2.0503011 3.6608343
2.8440199 -2.0478141 3.6299024
-0.050978214 -1.9503528 3.651947
2.7651467 -1.9719212 3.6878581
2.8509531 -1.9502116 3.6675203
2.908628 -1.9345356 3.654285
-0.063974962 -1.8499093 3.6485636
2.8716233 -1.8766463 3.6905901
2.9210258 -1.8504579 3.6844976
-0.076220691 -1.7474687 3.6485701
2.9492776 -1.7936046 3.6981537
-0.087478161 -1.6508889 3.6495664
-0.10643018 -1.5398759 3.6300519
-0.091316469 -1.5641481 3.672025
-0.11272061 -1.4470726 3.6465659
-0.092437521 -1.4928641 3.6975009
-0.12313259 -1.3505789 3.6504335
-0.1350987 -1.2542281 3.6489048
-0.1470871 -1.1498516 3.6505919
-0.15957806 -1.0490309 3.6490853
-0.17173833 -0.95063645 3.6477356
-0.18319893 -0.84990793 3.6497355
-0.20490624 -0.72970796 3.6245239
-0.19059329 -0.75993663 3.6612942
-0.21063659 -0.64773679 3.6385169
-0.19364193 -0.66848606 3.6884179
-0.21908216 -0.55082536 3.6493104
-0.23038723 -0.45015475 3.6518271
-0.24342029 -0.34994286 3.6482196
-0.25515494 -0.24966642 3.6490886
-0.26653105 -0.14832073 3.6516402
-0.27953118 -0.050552543 3.647141
-0.30667746 0.081193767 3.60797
-0.28897238 0.042499747 3.6529281
-0.30706054 0.13431332 3.6253631
-0.25368196 0.14228083 3.6497118
-0.149492 0.14577426 3.6468873
-0.05204146 0.14625311 3.6457338
0.047476418 0.14621121 3.6458366
0.14949259 0.14577468 3.6469023
0.24978241 0.14577475 3.6469016
0.35007223 0.14577468 3.6469016
0.450362 0.14577472 3.6469011
0.55065185 0.14577474 3.6469009
0.65002102 0.14608413 3.6461468
0.74938756 0.14577478 3.6469018
0.84967726 0.14577474 3.6469009
0.94996703 0.14577478 3.6469011
1.0493336 0.14592773 3.6465297
1.1496146 0.14606982 3.6461816
1.2508062 0.14577475 3.6469009
1.3501662 0.14608406 3.6461475
1.449542 0.14577472 3.6469021
1.5498316 0.14577469 3.6469021
1.6501216 0.14577469 3.6469018
1.7504115 0.14577474 3.6469018
1.8507009 0.14577472 3.6469018
1.950073 0.14608413 3.646147
2.0494368 0.14577474 3.6469011
2.1487916 0.14592779 3.646528
2.2490945 0.14606981 3.6461825
2.350276 0.14577472 3.6469023
2.4505665 0.14577472 3.6469009
2.5508549 0.14577469 3.6469021
2.6502185 0.14608414 3.6461461
2.7496033 0.14577539 3.6469171
2.8484039 0.14515285 3.6484594
2.918504 0.1337503 3.6762424
0.013934573 -2.2322304 3.7592397
2.08707 -2.2705736 3.7965965
2.1565263 -2.2401738 3.7853925
2.2475612 -2.2269084 3.7598112
2.3463955 -2.2184765 3.7295814
2.4212039 -2.2114811 3.7069466
-0.010063227 -2.1347811 3.716809
0.0066213836 -2.157196 3.7649436
2.1894498 -2.1894488 3.7949159
2.2592049 -2.1609285 3.7828469
2.3503821 -2.1501739 3.7561922
2.4467618 -2.1465261 3.7248511
2.5259748 -2.120472 3.7085383
-0.015840491 -2.0427926 3.7347498
0.00079142529 -2.0641241 3.7831612
2.2945004 -2.0951159 3.7977951
2.3628016 -2.0671854 3.7859471
2.4501276 -2.0500181 3.763222
2.5486975 -2.0486221 3.7302072
2.631393 -2.0272682 3.7107878
-0.022670647 -1.9483035 3.7501066
2.4682462 -1.9727583 3.7887037
2.5512602 -1.9518824 3.7689564
2.6499195 -1.9500161 3.7361014
2.7373466 -1.93261 3.7134459
2.8038838 -1.9062707 3.7014966
-0.034162458 -1.8504467 3.7508304
2.5736251 -1.8792783 3.7910869
2.6534088 -1.8530577 3.7746303
2.7502043 -1.8500302 3.7428696
2.8412321 -1.8392022 3.7162952
2.9115431 -1.8109503 3.7039211
-0.046794564 -1.7492393 3.7489979
2.6815689 -1.7841194 3.7932706
2.7556965 -1.7565832 3.7792811
2.8498032 -1.7500051 3.7499001
2.9319425 -1.7472166 3.7230525
-0.059198219 -1.6482584 3.7478676
2.7868788 -1.6909159 3.795552
2.859396 -1.6606901 3.7832224
2.9453185 -1.6479545 3.7591546
-0.070688657 -1.5504211 3.748584
2.8918667 -1.5955136 3.7988417
2.9629273 -1.5664315 3.7865503
3.0090246 -1.5366025 3.783051
-0.10177516 -1.4063476 3.7009149
-0.081536904 -1.4518425 3.7518029
3.0237651 -1.491949 3.7963159
-0.10409375 -1.3458072 3.7178469
-0.088604718 -1.3520331 3.7685399
-0.11019737 -1.2489167 3.7366917
-0.094651632 -1.2588136 3.7860651
-0.11780299 -1.1544981 3.7493494
-0.13005394 -1.0523431 3.7492239
-0.14230289 -0.94997561 3.7491906
-0.15415119 -0.84886563 3.7500234
-0.16633235 -0.74994737 3.7488055
-0.17842442 -0.65019065 3.7482402
-0.20405433 -0.52865565 3.7100787
-0.18706265 -0.55322552 3.7583964
-0.20919712 -0.44306609 3.7275932
-0.1941682 -0.45485994 3.7744081
-0.21664593 -0.34655553 3.7416501
-0.19901948 -0.37432289 3.7908473
-0.22602776 -0.25046557 3.7488937
-0.23727983 -0.15049756 3.7513087
-0.24994424 -0.052997027 3.7478521
-0.25495619 0.05478134 3.7552631
-0.15133078 0.089838997 3.7832687
-0.05201995 0.089839011 3.7832696
0.047290869 0.089839011 3.7832699
0.15133077 0.089838997 3.7832687
0.25064158 0.089839004 3.7832696
0.34995946 0.089840837 3.7833462
0.45168069 0.09005367 3.7828262
0.55090588 0.089627951 3.7838645
0.6502791 0.09005367 3.7828262
0.74955881 0.089627974 3.7838652
0.84887743 0.0900537 3.7828269
0.95055193 0.089840807 3.783345
1.0498648 0.089840837 3.7833459
1.1491777 0.089840814 3.7833457
1.250921 0.089627974 3.7838652
1.3501019 0.09005367 3.7828262
1.4518453 0.089840814 3.7833457
1.5511581 0.089840837 3.7833459
1.650471 0.089840837 3.7833462
1.7497839 0.089840837 3.7833459
1.8490965 0.089840814 3.783345
1.9508371 0.0900537 3.7828264
2.0500236 0.089627974 3.7838652
2.1494358 0.0900537 3.7828262
2.2486763 0.089627959 3.7838652
2.35039 0.089840807 3.783345
2.4520614 0.090053692 3.7828269
2.5513856 0.089627944 3.7838645
2.65066 0.09005367 3.7828262
2.7500386 0.089627974 3.7838652
2.8492584 0.090053678 3.7828262
2.9509826 0.089840829 3.7833455
3.014452 0.087605722 3.7887976
-0.24225093 0.11178748 3.7272747
-0.14918338 0.11185233 3.7295864
-0.051282238 0.11185334 3.7296207
0.046620157 0.11185294 3.7296073
0.14918427 0.11185303 3.7296095
0.25023949 0.1121254 3.7289581
0.34963638 0.11185306 3.729651
0.44908559 0.11158307 3.730309
0.5485599 0.1121261 3.7289853
0.64956254 0.11185409 3.7296481
0.75057369 0.11185306 3.729651
0.85006547 0.11212611 3.7289848
0.94945371 0.11158309 3.7303095
1.0489457 0.11185308 3.729651
1.1483842 0.11212613 3.7289848
1.2493964 0.11185411 3.7296484
1.3519619 0.11185408 3.7296486
1.4498649 0.1118541 3.7296481
1.547768 0.11185411 3.7296481
1.6503335 0.1118541 3.7296481
1.7514135 0.11212613 3.7289844
1.8491768 0.11157329 3.7303329
1.9487053 0.11185411 3.7296484
2.0497322 0.11212611 3.7289848
2.1491556 0.11185306 3.729651
2.2501671 0.11185408 3.7296481
2.3496244 0.11185516 3.7296453
2.4490817 0.11185408 3.7296486
2.5500932 0.11185307 3.7296505
2.6495562 0.11212612 3.7289848
2.7505438 0.11185408 3.7296476
2.8515842 0.11158308 3.7303095
2.9413135 0.11081083 3.7321923
0.056154456 -2.3114486 3.8718197
1.7566335 -2.3200572 3.8889441
1.843689 -2.3102474 3.8633041
1.9199404 -2.3039424 3.8399041
0.042295039 -2.2503881 3.8492715
1.7812059 -2.2857878 3.8946157
1.8559676 -2.2575245 3.880702
1.9496236 -2.2505937 3.8516271
2.0460522 -2.2413504 3.8225543
2.1202683 -2.2172773 3.8071346
0.031490192 -2.1515818 3.8527462
1.8921188 -2.1912398 3.8955445
1.9605745 -2.1629918 3.8837824
2.0498908 -2.1503623 3.8585172
2.1475294 -2.1475787 3.8263755
2.2272546 -2.122498 3.8094864
0.018034978 -2.0500469 3.848222
1.9980417 -2.0955071 3.898618
2.0638537 -2.0696888 3.8868096
2.150584 -2.0501394 3.8652503
2.249588 -2.05007 3.831532
2.3338914 -2.0279846 3.8118522
-0.009519334 -1.9181358 3.8077335
0.00826318 -1.954567 3.8538742
2.1694014 -1.9749242 3.8896458
2.2514527 -1.9522468 3.8709691
2.3501673 -1.9505965 3.8380079
2.438025 -1.9347254 3.8145621
2.5079644 -1.9052171 3.8028302
-0.012902336 -1.8430798 3.8269441
0.0028607969 -1.8591452 3.8745248
2.2757852 -1.8809536 3.8918726
2.3536608 -1.8546387 3.8761244
2.4508948 -1.8499331 3.8449161
2.5424941 -1.8404237 3.8175955
2.613024 -1.811516 3.8053882
-0.018636661 -1.7466115 3.8468769
0 -1.7865963 3.8945107
2.3831255 -1.7868859 3.8938127
2.4568727 -1.7571687 3.8808715
2.5500419 -1.750942 3.8516798
2.6453905 -1.7448088 3.8217037
2.7217882 -1.7165391 3.8072329
-0.029836653 -1.6499106 3.8481326
2.4866579 -1.6915516 3.8975866
2.56005 -1.6630828 3.8842394
2.650099 -1.6505702 3.8586886
2.747951 -1.6470399 3.8267918
2.8274403 -1.6230148 3.8095231
-0.041869082 -1.549273 3.8481281
2.5930641 -1.5987313 3.8993444
2.6630402 -1.5698707 3.8873312
2.7499847 -1.5501868 3.8657615
2.8496835 -1.5499828 3.8318753
2.9339929 -1.5282439 3.8120499
-0.053394124 -1.4505603 3.8490791
2.7695284 -1.4751959 3.8898294
2.851486 -1.452112 3.8713312
2.9502323 -1.4500068 3.8385553
3.0208011 -1.4412601 3.8181
-0.06479013 -1.351451 3.8506534
2.8780527 -1.3800139 3.89183
2.9549098 -1.353838 3.8763449
3.0348003 -1.3477796 3.8516009
-0.076931171 -1.2511991 3.8501134
2.9817395 -1.2860365 3.8949821
3.0515552 -1.257205 3.8829966
3.1004207 -1.2051792 3.8876748
-0.10470057 -1.1231353 3.8072929
-0.087241665 -1.1547623 3.85431
3.0882826 -1.1927258 3.8968909
3.1060963 -1.1830339 3.8947916
-0.10874423 -1.0422026 3.8266425
-0.093271166 -1.0561498 3.8741097
-0.11553405 -0.94527918 3.8431473
-0.097308949 -0.97794449 3.8923578
-0.12457377 -0.85093641 3.8508565
-0.13739792 -0.75034386 3.8481147
-0.14909114 -0.64954042 3.8493481
-0.16093253 -0.55009365 3.8495171
-0.17333877 -0.45009604 3.8479784
-0.20019826 -0.30982864 3.8133001
-0.18351474 -0.35108837 3.8536866
-0.20482704 -0.24254295 3.8250339
-0.18955448 -0.2537213 3.8729448
-0.21155937 -0.14594395 3.8416014
-0.19451198 -0.17017345 3.8902392
-0.22067955 -0.053315289 3.8483236
-0.22593486 0.043065436 3.8447559
-0.14918669 0.062491585 3.8499799
-0.05293721 0.062491596 3.8499787
0.048124742 0.062491588 3.8499813
0.1491867 0.062491585 3.8499792
0.24906817 0.06281583 3.84919
0.35008422 0.062151663 3.8508146
0.44994229 0.062932685 3.8489149
0.54981256 0.062380321 3.8502665
0.64966404 0.062489148 3.8499923
0.74950141 0.062606484 3.8497379
0.84937954 0.06271331 3.8495193
0.9492541 0.062607087 3.8497794
1.0490912 0.062490277 3.8500643
1.1501549 0.062495459 3.8500524
1.2500015 0.062830269 3.8492353
1.3499032 0.062052 3.8511317
1.4508725 0.06293375 3.8489823
1.5495778 0.062492866 3.8500569
1.6506419 0.062492877 3.8500571
1.7517058 0.062492874 3.8500557
1.8491926 0.062830269 3.8492336
1.9490005 0.062495459 3.8500512
2.0500634 0.062490288 3.8500636
2.149914 0.06260708 3.8497789
2.2498009 0.062713318 3.8495185
2.3508201 0.062272429 3.8505955
2.4507244 0.062830262 3.8492348
2.5493207 0.062381301 3.8503289
2.649241 0.062272418 3.8505948
2.7502382 0.062713318 3.849519
2.8501301 0.062607087 3.8497789
2.9487565 0.062830262 3.8492343
3.039221 0.059599608 3.8571146
0.083387278 -2.3391781 3.9540386
1.3769602 -2.3803632 3.9936314
1.4540074 -2.3479288 3.9806585
1.5480148 -2.3340075 3.9543138
1.6480019 -2.3271246 3.9230559
1.7165704 -2.3115549 3.9060779
0.07150621 -2.2498691 3.949904
1.4836552 -2.2873399 3.9953597
1.5576776 -2.2595499 3.9815295
1.6497383 -2.2504523 3.9538708
1.7457309 -2.2456021 3.9231455
1.8217643 -2.2191985 3.9080496
0.060167592 -2.1521103 3.9511197
1.5923042 -2.1919165 3.9974201
1.6622404 -2.164259 3.9849179
1.7507348 -2.1509786 3.9602025
1.8484266 -2.1483812 3.9279754
1.92928 -2.1247852 3.9100823
0.046853121 -2.0515859 3.9466596
1.6994741 -2.0993505 3.9987626
1.765469 -2.0706515 3.9880743
1.8511122 -2.0513296 3.9668152
1.9499558 -2.0496628 3.9338212
2.0372431 -2.0300512 3.9121044
0.035900217 -1.9503826 3.9506047
1.8714597 -1.9758707 3.9907663
1.9528537 -1.9526854 3.9725404
2.0501101 -1.95048 3.9403102
2.1396594 -1.9370888 3.9152873
2.2113445 -1.9089096 3.9023747
0.02337046 -1.8496138 3.9489565
1.977048 -1.8820121 3.9932592
2.054553 -1.8559998 3.9774861
2.1499703 -1.8500574 3.9474032
2.2431622 -1.8421555 3.9188907
2.3160911 -1.8135551 3.9057379
0.012030703 -1.7494767 3.9511344
2.0830917 -1.7880337 3.9956138
2.1579177 -1.7600451 3.981575
2.2498379 -1.7501484 3.9542842
2.3464794 -1.7459202 3.9230917
2.4232957 -1.7188429 3.9080224
-0.011291267 -1.639467 3.9161725
0.0051974477 -1.6572464 3.965548
2.1904643 -1.6948127 3.9972024
2.2620463 -1.6650137 3.9850025
2.3502653 -1.6505567 3.9608569
2.4486849 -1.6483415 3.9282262
2.5305417 -1.6245062 3.9101045
-0.016248912 -1.5451514 3.9378922
0 -1.5643898 3.9858561
2.2994349 -1.5996069 3.9990172
2.365752 -1.5716063 3.9879286
2.4514127 -1.5508173 3.9672477
2.5497494 -1.5501326 3.9340179
2.6355557 -1.5309242 3.9126406
2.7019739 -1.5021805 3.9017675
-0.024614686 -1.4493728 3.9485064
2.47052 -1.476474 3.9911828
2.5527089 -1.4536985 3.9725139
2.6509151 -1.4500862 3.9405267
2.7405398 -1.4367888 3.915426
2.8085999 -1.4091796 3.9035478
-0.036234777 -1.3500034 3.9494095
2.5778539 -1.3827602 3.9929812
2.6552515 -1.3558931 3.9776282
2.7502396 -1.3505031 3.9474759
2.8432863 -1.3421638 3.9191637
2.9148376 -1.3147755 3.9059916
-0.047013033 -1.2532722 3.9521194
2.6827912 -1.2893713 3.9954782
2.7584875 -1.2604424 3.9815321
2.8505924 -1.2501458 3.9543722
2.9459977 -1.2467654 3.9232414
3.0234768 -1.2184402 3.9084282
-0.060225766 -1.1523578 3.9481647
2.7902224 -1.1952385 3.9974568
2.8620429 -1.1654885 3.9851356
2.9510891 -1.150418 3.9609671
3.0489991 -1.1481531 3.9285412
3.1109226 -1.1315314 3.9142425
-0.072242036 -1.0491205 3.9492946
2.8994722 -1.0997999 3.9992721
2.9645741 -1.071445 3.9887123
3.050832 -1.0513134 3.9675598
3.1223986 -1.0456263 3.9455101
-0.084256001 -0.9512096 3.9482348
3.0701122 -0.97736776 3.9912972
3.1374278 -0.95183748 3.9787984
-0.10765807 -0.83675206 3.9148393
-0.091772899 -0.8555342 3.9617281
3.1688559 -0.88650161 3.9948599
-0.11403664 -0.74583912 3.9302707
-0.097252041 -0.75966692 3.982285
-0.12037788 -0.64755517 3.9488757
-0.099943608 -0.69960523 3.9977443
-0.13204978 -0.54964012 3.9489975
-0.14403471 -0.4517554 3.9480286
-0.15539253 -0.35157165 3.9501696
-0.167243 -0.25252405 3.9501348
-0.17937797 -0.15094249 3.9501748
-0.20523719 -0.034181491 3.9092803
-0.18861811 -0.057190869 3.9569519
-0.20844455 0.023762433 3.9172485
-0.15466964 0.023395238 3.9429488
-0.054209244 0.024566552 3.942492
0.049281128 0.024566548 3.9424908
0.15277152 0.024566554 3.9424889
0.25133377 0.024566552 3.9424889
0.34989598 0.024566555 3.9424913
0.4496704 0.024920324 3.9416282
0.55068058 0.024686363 3.9421985
0.65048122 0.024566552 3.9424903
0.74904358 0.024566557 3.9424908
0.850061 0.024797829 3.9419382
0.95108289 0.024566619 3.9424961
1.0496484 0.024566738 3.9425099
1.1494423 0.024686441 3.9422054
1.2504565 0.024920674 3.9416733
1.3502573 0.024567066 3.942574
1.4488217 0.024567077 3.9425735
1.5473858 0.024567068 3.9425724
1.6485149 0.025029384 3.9414444
1.7506273 0.024450101 3.942858
1.851648 0.024210438 3.9434421
1.9514996 0.02456706 3.942574
2.0500638 0.024567066 3.942574
2.149828 0.024920853 3.9417095
2.2508478 0.024686886 3.9422801
2.3506553 0.024567069 3.9425733
2.4492199 0.024567069 3.9425721
2.5502284 0.024798235 3.9420087
2.6512618 0.024567066 3.9425724
2.7498264 0.024567069 3.9425728
2.8496203 0.024686882 3.9422791
2.9506156 0.024920849 3.9417086
3.0504177 0.024567073 3.9425728
3.1288712 0.019712726 3.9544148
0.12538712 -2.4203439 4.0650673
0.98678994 -2.451611 4.0974035
1.052949 -2.4283531 4.084362
1.1452703 -2.4169908 4.0575528
1.240962 -2.4095421 4.0280027
1.3166124 -2.4029572 4.0049286
0.11240382 -2.3485179 4.0499525
1.078633 -2.3835833 4.0939546
1.1551429 -2.3566287 4.0789323
1.2505248 -2.3498797 4.0491934
1.3440892 -2.3429639 4.0201435
1.4196981 -2.3159187 4.0054417
0.090423815 -2.2404118 4.018836
0.10580777 -2.25612 4.0652628
1.1876988 -2.288944 4.0955343
1.2594121 -2.2592449 4.0832825
1.3505794 -2.2509186 4.0556345
1.4467186 -2.2460947 4.0248537
1.5257331 -2.221657 4.0079374
0.084691033 -2.143923 4.0387888
0.10219005 -2.1715117 4.0876021
1.291328 -2.1932077 4.0994539
1.3611004 -2.1667826 4.0864906
1.4494449 -2.1504607 4.0630798
1.547828 -2.1486778 4.0302863
1.6322346 -2.126379 4.0106597
0.076445363 -2.0493982 4.049293
1.4669616 -2.0742035 4.0883389
1.5515645 -2.0511146 4.0689607
1.6499015 -2.0495327 4.0361052
1.7365255 -2.0333333 4.0132356
1.8042562 -2.0043583 4.0020485
0.064929821 -1.94989 4.0506063
1.5742029 -1.9777539 4.0913024
1.6535687 -1.9536722 4.0741138
1.750392 -1.9505059 4.0424156
1.8403742 -1.9381659 4.0168138
1.9129263 -1.9095911 4.0038075
0.052516732 -1.8483195 4.0496845
1.6815107 -1.8844575 4.092957
1.7556815 -1.8565009 4.0791235
1.8505353 -1.8507531 4.0491543
1.9440953 -1.8422765 4.0207405
2.0206406 -1.8153523 4.005692
0.04053751 -1.7508907 4.0485487
1.7871625 -1.7915514 4.0949893
1.858461 -1.7617093 4.0829344
1.9505413 -1.749974 4.0563602
2.0466702 -1.7460923 4.0251927
2.126204 -1.7211264 4.0083055
0.028584335 -1.6514516 4.0483308
1.8951316 -1.6953723 4.0975819
1.9618033 -1.6668248 4.0865712
2.0501585 -1.6504465 4.0631828
2.1487002 -1.6484017 4.0304451
2.232734 -1.6276689 4.0102882
0.017243791 -1.5511248 4.0505824
2.0677166 -1.5725082 4.0891027
2.1517432 -1.5510292 4.0692759
2.249871 -1.5500741 4.0362344
2.3372116 -1.533201 4.013371
2.4046826 -1.5041769 4.0022469
-0.010023478 -1.4233162 4.0093918
0.0075510317 -1.4544146 4.0570107
2.1743717 -1.4781773 4.0914197
2.2532589 -1.4534806 4.074635
2.3507602 -1.4499923 4.04284
2.4408286 -1.4385593 4.0168424
2.5122838 -1.4112799 4.0036435
-0.013969895 -1.3453647 4.027863
0.0020479455 -1.3560448 4.0785327
2.2824404 -1.3843912 4.0930099
2.3561625 -1.3562329 4.0793896
2.4504354 -1.3505864 4.0495787
2.5440547 -1.3431343 4.0207396
2.620548 -1.3150294 4.0062056
-0.019184135 -1.2500641 4.0490994
0 -1.2909627 4.0982943
2.3897722 -1.2876811 4.0960245
2.4589989 -1.2616295 4.0831075
2.5503142 -1.2502565 4.056643
2.646992 -1.2465714 4.0252085
2.7270916 -1.2211037 4.0083528
-0.03177933 -1.1497611 4.0470295
2.4940755 -1.1983862 4.0970469
2.5619721 -1.167515 4.0865688
2.6496363 -1.1499051 4.06391
2.7482831 -1.1483371 4.0309329
2.8333328 -1.1276371 4.0104232
-0.043271922 -1.0494795 4.0487404
2.6687064 -1.0725443 4.0890861
2.7514076 -1.0505975 4.0699091
2.8495891 -1.0498501 4.036757
2.9379549 -1.0340129 4.0131073
3.0052114 -1.0039599 4.002502
-0.05528716 -0.94949615 4.0485282
2.775944 -0.97832763 4.0911183
2.8523183 -0.95391792 4.0751095
2.9501531 -0.95015746 4.0433125
3.0416067 -0.93872422 4.0168209
3.1130221 -0.91088057 4.00389
-0.066816799 -0.84983832 4.0498614
2.8831124 -0.88478917 4.0929518
2.9552162 -0.85716945 4.0796633
3.050281 -0.85020447 4.0501299
3.1443765 -0.84348279 4.0208249
3.2023726 -0.80812037 4.0155144
-0.078430191 -0.74943644 4.0512009
2.9870939 -0.79220557 4.0954227
3.0589104 -0.76074058 4.0838161
3.151098 -0.74995923 4.0568228
3.2113855 -0.74096537 4.0399714
-0.10131254 -0.64343536 4.0161061
-0.085023269 -0.65401256 4.0677576
3.0940776 -0.69667971 4.0981159
3.1619482 -0.66642368 4.0873542
3.2245507 -0.6457538 4.0744729
-0.10783891 -0.54501319 4.0341339
-0.091853954 -0.56126809 4.0823975
3.2466667 -0.57962239 4.0940323
-0.11496164 -0.44908085 4.0490742
-0.12650818 -0.34935945 4.0503697
-0.13852695 -0.24933909 4.0501671
-0.15061323 -0.14858441 4.0500302
-0.14875793 -0.039816488 4.0463552
-0.050649229 -0.020301387 4.0519381
0.045584306 -0.020301389 4.0519385
0.14688276 -0.020301383 4.0519381
0.24818124 -0.02030139 4.0519385
0.34947968 -0.020301389 4.0519381
0.45077816 -0.020301385 4.051939
0.55037719 -0.019947033 4.0510731
0.64997751 -0.020301387 4.0519381
0.7495876 -0.020302845 4.0519419
0.84919792 -0.020301387 4.0519381
0.95049626 -0.020301389 4.0519385
1.0501053 -0.019947035 4.0510745
1.1496956 -0.020301383 4.0519381
1.2509942 -0.020301389 4.0519376
1.3522927 -0.020301387 4.0519381
1.4519892 -0.02065428 4.0527987
1.5480473 -0.019935884 4.0510468
1.6460582 -0.020301389 4.051939
1.7473644 -0.020301454 4.0519552
1.8486949 -0.020301823 4.0520267
1.9499955 -0.020301823 4.0520267
2.0512965 -0.020301824 4.0520267
2.1509058 -0.019947462 4.0511618
2.2504995 -0.020301821 4.0520267
2.3501122 -0.020303275 4.0520296
2.4497244 -0.020301821 4.0520267
2.5510252 -0.020301823 4.0520263
2.6506453 -0.019947462 4.0511618
2.7502284 -0.020301821 4.0520267
2.8515294 -0.020301821 4.0520267
2.9511981 -0.020654721 4.052887
3.0507753 -0.020301823 4.0520267
3.1485975 -0.019936314 4.0511351
3.2194953 -0.023720246 4.0603642
-0.14008456 0 4.0024161
-0.050030202 0 4.0024161
0.045027182 0 4.0024161
0.14508758 0 4.0024161
0.24514797 0 4.0024161
0.34520841 0 4.0024161
0.44526884 0 4.0024161
0.54532915 0 4.0024161
0.64538956 0 4.0024161
0.74545002 0 4.0024161
0.84551042 0 4.0024161
0.94557077 0 4.0024161
1.0456312 0 4.0024161
1.1456916 0 4.0024161
1.245752 0 4.0024161
1.345827 0 4.0024586
1.4458849 0 4.00245
1.545963 0 4.0024934
1.6460043 0 4.0024419
1.7460912 0 4.002502
1.8461539 0 4.002502
1.9462162 0 4.002502
2.046279 0 4.002502
2.1463416 0 4.002502
2.2464042 0 4.002502
2.3464668 0 4.002502
2.4465292 0 4.002502
2.5465915 0 4.002502
2.6466541 0 4.002502
2.7467165 0 4.002502
2.8467796 0 4.002502
2.9468417 0 4.002502
3.0469043 0 4.002502
3.1469669 0 4.002502
0.16693921 -2.5040884 4.1734805
0.65046793 -2.5091236 4.1884232
0.71406615 -2.5018435 4.1697388
0.15463316 -2.447789 4.1543236
0.67445958 -2.480741 4.1918869
0.7520169 -2.4537299 4.1765347
0.84823823 -2.4422622 4.1484361
0.9451955 -2.4317687 4.1196799
1.0135348 -2.4124157 4.1043091
0.14195067 -2.3525631 4.149869
0.78406245 -2.3851478 4.1936812
0.85719031 -2.3576303 4.1800427
0.95014268 -2.3507848 4.151176
1.0453305 -2.3441496 4.1214614
1.1214516 -2.3147986 4.1075287
0.12904939 -2.2478759 4.1485505
0.88351071 -2.2937763 4.1972146
0.95956552 -2.262785 4.1839919
1.0500705 -2.2501225 4.1583443
1.1473615 -2.2468264 4.1265488
1.2266303 -2.2228591 4.1093693
0.11654404 -2.1444535 4.1480708
0.9973225 -2.1941094 4.1992526
1.0633606 -2.1691391 4.1869926
1.1504971 -2.1503336 4.1649947
1.2492611 -2.1493442 4.1317468
1.3343228 -2.1278908 4.1115551
0.092570737 -2.0262327 4.1142545
0.10975298 -2.0539076 4.1619439
1.1680571 -2.0747495 4.1899872
1.2514577 -2.0519941 4.1708775
1.350372 -2.0498133 4.1380653
1.4399456 -2.0343964 4.1138515
1.5077472 -2.0051992 4.1027136
0.088385954 -1.9429449 4.1340976
0.10451411 -1.9648007 4.1805639
1.2767503 -1.9808291 4.1914053
1.3543135 -1.9542321 4.1758771
1.4497787 -1.9504018 4.1449118
1.5405817 -1.9410518 4.1177816
1.611209 -1.9134848 4.1050048
0.082338549 -1.8534771 4.1500826
1.3793766 -1.8875734 4.1946163
1.4564914 -1.8578709 4.1805191
1.550294 -1.850418 4.1516018
1.6459961 -1.8445404 4.121397
1.7212225 -1.8177313 4.1067309
0.069629051 -1.75327 4.1475768
1.4897354 -1.791357 4.1964474
1.5599231 -1.7626405 4.1842651
1.6497687 -1.7506242 4.1585789
1.7477214 -1.7477958 4.1263671
1.8280642 -1.7224839 4.1093478
0.058300413 -1.6511368 4.1506152
1.6641979 -1.6687584 4.1871777
1.7507751 -1.6505151 4.1651516
1.8489876 -1.649718 4.132019
1.9344978 -1.6281458 4.111732
0.045697171 -1.5496112 4.1490231
1.7709509 -1.5751122 4.1891828
1.8521742 -1.5517414 4.171061
1.9506133 -1.5498976 4.1382689
2.038367 -1.5353308 4.1143384
2.1054704 -1.5107429 4.1015673
0.033861656 -1.4481068 4.1500506
1.8764396 -1.4798512 4.192246
1.9540037 -1.4533831 4.1766572
2.0502148 -1.4504269 4.1450791
2.1429195 -1.4411117 4.117301
2.217365 -1.4119844 4.1038651
0.022196634 -1.3470912 4.1514769
1.9837836 -1.3851194 4.1944618
2.0565214 -1.35727 4.1810899
2.1501775 -1.3504038 4.1519856
2.2450473 -1.3453163 4.1217418
2.3223522 -1.3171426 4.1069198
0.010039996 -1.2515268 4.1489687
2.0950863 -1.2900875 4.1954198
2.1601276 -1.2624481 4.184608
2.2495694 -1.2500691 4.1592059
2.3467379 -1.2477291 4.1270504
2.4280062 -1.2233236 4.1093421
-0.011149902 -1.1495464 4.1180425
0.0044056028 -1.158679 4.1677594
2.1943541 -1.1969204 4.1997209
2.2646258 -1.1684897 4.1874676
2.3499286 -1.1508344 4.1656461
2.4489694 -1.1491742 4.132587
2.5335064 -1.1284201 4.1122823
-0.01734847 -1.04705 4.1388507
0 -1.0730942 4.1877961
2.3709216 -1.0753493 4.1894121
2.4524009 -1.0519662 4.1712117
2.5504744 -1.0504819 4.1384058
2.6385653 -1.0348841 4.1147923
2.7102745 -1.008235 4.1012988
-0.026367044 -0.94901967 4.1481495
2.4761035 -0.98020786 4.1925502
2.5548275 -0.95394093 4.1764703
2.6514115 -0.95074278 4.1448646
2.7419338 -0.94121444 4.1179237
2.8173778 -0.91051745 4.1048007
-0.037979878 -0.84791285 4.1497822
2.5841348 -0.8864783 4.1941152
2.6559291 -0.85944468 4.1807313
2.7515748 -0.84944832 4.1522307
2.8464844 -0.84535617 4.1215615
2.922261 -0.81677097 4.1074429
-0.049742475 -0.74806416 4.1503868
2.688097 -0.79320866 4.1968775
2.7598233 -0.76246184 4.1850424
2.8484221 -0.7507388 4.1596646
2.9484155 -0.74723506 4.1270189
3.0260365 -0.72344685 4.1102939
-0.06080094 -0.65005213 4.1526613
2.8655221 -0.67022485 4.1867929
2.950357 -0.65099555 4.1657696
3.0507736 -0.64879662 4.1324549
3.1353121 -0.63036406 4.1111822
-0.074512601 -0.55005008 4.1466274
2.9689693 -0.57686919 4.1898007
3.051718 -0.54967326 4.172718
3.1490302 -0.55176324 4.138711
3.2345717 -0.53829879 4.1150899
-0.10267635 -0.41069913 4.1070538
-0.084172092 -0.45296273 4.1533237
3.0775664 -0.4796491 4.1926184
3.154897 -0.45603397 4.1759109
3.2485266 -0.44978905 4.1465621
3.3035629 -0.41423446 4.1423988
-0.10605254 -0.33952001 4.124742
-0.08996065 -0.35726082 4.1727567
3.1821623 -0.38798571 4.1944947
3.2566116 -0.35833004 4.1812825
3.3131335 -0.34177095 4.1687922
-0.11257716 -0.24673383 4.1404471
-0.094289377 -0.27761769 4.190639
3.291373 -0.29031134 4.1972885
3.3256035 -0.27438289 4.1921468
-0.12079854 -0.15100594 4.1515322
-0.12483496 -0.064815365 4.1372643
-0.05176907 -0.057027657 4.1415262
0.046592165 -0.057027664 4.1415267
0.15013032 -0.057027664 4.1415267
0.25111648 -0.0564638 4.140151
0.35070187 -0.057166737 4.1418657
0.45036674 -0.057024091 4.1415167
0.55000639 -0.056892052 4.1411953
0.64968926 -0.056745712 4.1408381
0.75060242 -0.057027664 4.1415267
0.85156554 -0.057309609 4.1422148
0.94990009 -0.056745712 4.1408386
1.0495795 -0.056892052 4.1411958
1.1505175 -0.056613863 4.1405153
1.2501644 -0.057591528 4.1429019
1.3484796 -0.056463793 4.140151
1.4494523 -0.057027664 4.1415267
1.5529903 -0.057027657 4.1415253
1.6513516 -0.057027653 4.1415272
1.7497129 -0.057027657 4.1415267
1.8507159 -0.056463871 4.1401577
1.9502872 -0.057166871 4.1418786
2.0499566 -0.05702424 4.1415319
2.1496201 -0.056892719 4.1412477
2.2506161 -0.057167985 4.1419568
2.3502614 -0.057025358 4.1416082
2.4498827 -0.056893282 4.1412859
2.5495453 -0.056746952 4.1409292
2.6492233 -0.056893289 4.1412845
2.7488589 -0.057025339 4.1416082
2.8485191 -0.057167958 4.1419559
2.9494667 -0.056893278 4.1412864
3.0503647 -0.056615096 4.1406078
3.151428 -0.057439223 4.1426158
3.2474809 -0.057486132 4.1427326
3.3151157 -0.069550745 4.1721621
0.18711796 -2.5204492 4.2361403
0.25469071 -2.5555015 4.291059
0.35012177 -2.5349166 4.2802329
0.44849956 -2.5250587 4.2507396
0.54961634 -2.5165682 4.2197547
0.61295986 -2.5043807 4.2031574
0.1821252 -2.4487875 4.248425
0.37915519 -2.4809117 4.2924323
0.45472416 -2.4555581 4.2770801
0.548428 -2.4494138 4.2476726
0.64128864 -2.4422393 4.2189741
0.71405476 -2.4146481 4.2054996
0.17080635 -2.3503141 4.2499943
0.48210055 -2.3866551 4.2959847
0.55786133 -2.3595066 4.2812734
0.65172529 -2.3505847 4.2529435
0.74645275 -2.3454361 4.2227755
0.82377839 -2.3167739 4.2081776
0.15864392 -2.2498581 4.2494702
0.58731806 -2.2955554 4.2974539
0.66052097 -2.2634361 4.2856536
0.75054485 -2.2508008 4.2601461
0.84894812 -2.2483881 4.2275915
0.92956352 -2.2257082 4.209414
0.14722554 -2.1531975 4.2499509
0.76472789 -2.1711648 4.2879381
0.84988171 -2.1512163 4.2670798
0.94913715 -2.1506772 4.2334695
1.0357653 -2.1293967 4.2126603
1.1028939 -2.1007504 4.2015009
0.13523835 -2.0533528 4.2497802
0.87214249 -2.0783577 4.289331
0.95259893 -2.0522656 4.272604
1.0499613 -2.0500722 4.2403269
1.1398547 -2.0356607 4.2155895
1.2115043 -2.0098367 4.2017512
0.12195659 -1.9503592 4.2464604
0.97933501 -1.9801428 4.2930117
1.0555996 -1.9551287 4.277288
1.1504008 -1.9496205 4.2472463
1.2425213 -1.9425393 4.2187638
1.3188361 -1.9131675 4.204772
0.094689116 -1.8148623 4.208405
0.1137161 -1.8544723 4.2575412
1.0882994 -1.8867402 4.2941618
1.1577504 -1.858656 4.2819805
1.2503338 -1.850238 4.2538853
1.3464839 -1.8460726 4.2228346
1.4230431 -1.8178073 4.2083411
0.091864623 -1.7411062 4.2290163
0.10783608 -1.756421 4.2776289
1.1873729 -1.7944939 4.2981892
1.2612096 -1.7642713 4.2854052
1.3505574 -1.7512697 4.2602754
1.4482549 -1.748436 4.2281423
1.5304821 -1.724925 4.2097545
0.08660946 -1.6477103 4.2493448
1.3649294 -1.6720215 4.2878466
1.4506533 -1.6505276 4.2674379
1.5498768 -1.64991 4.2338619
1.6358045 -1.6311032 4.2122803
1.7010387 -1.6065366 4.2000957
0.074788556 -1.5493529 4.2491355
1.4714264 -1.5773456 4.2903185
1.5514123 -1.5524069 4.273284
1.6496799 -1.5504757 4.240582
1.7402099 -1.5371445 4.2151861
1.8150771 -1.5051241 4.2027907
0.063411228 -1.4520113 4.250031
1.5802286 -1.481962 4.2922955
1.6555572 -1.4556782 4.2774062
1.7503881 -1.4498328 4.2474957
1.8427887 -1.4418337 4.219285
1.9128392 -1.4160026 4.2059765
0.05134159 -1.3524491 4.2494678
1.6860907 -1.3853838 4.2957797
1.7586579 -1.3592703 4.2817469
1.8505322 -1.3498826 4.2542944
1.9465925 -1.3460948 4.2231207
2.0238128 -1.3194802 4.2077308
0.038997263 -1.2530828 4.2478809
1.7937573 -1.2942958 4.2964249
1.8606745 -1.2638857 4.286068
1.9498477 -1.2505658 4.2611308
2.0481784 -1.2483728 4.2285204
2.1291823 -1.2249736 4.2105126
0.027685447 -1.1528246 4.2501993
1.9670616 -1.1714305 4.2876935
2.0518725 -1.149963 4.2675791
