# .PCD v0.7 - Point Cloud Data file format
VERSION 0.7
FIELDS x y z
SIZE 4 4 4
TYPE F F F
COUNT 1 1 1
WIDTH 1523
HEIGHT 1
VIEWPOINT 0 0 0 1 0 0 0
POINTS 1523
DATA ascii
1.5412457 1.1355022 3.3000002
1.5670418 1.1379135 3.2999997
-0.42320454 1.1671188 3.3
-0.24494067 1.1745579 3.3
-0.21986799 1.1861299 3.3
-0.19672398 1.1919159 3.3
-0.09257599 1.1977019 3.3
-0.063003108 1.1932017 3.2999997
-0.017357999 1.1893443 3.2999997
0.0046287999 1.1884444 3.3
0.060752995 1.1933624 3.2999997
0.092575997 1.1977019 3.3
0.13784295 1.1840879 3.2999995
0.17791949 1.1774509 3.3
0.22120322 1.1776733 3.2999997
0.25844133 1.1813084 3.3
0.30183634 1.1813082 3.2999997
0.33269501 1.1774509 3.3
0.37030399 1.1707007 3.3
0.42816395 1.168129 3.2999997
0.45753914 1.1794536 3.2999997
0.49682453 1.1753294 3.2999997
0.53578365 1.1742686 3.2999997
0.58670038 1.1653004 3.3
0.62103063 1.1678077 3.2999995
0.65586013 1.1684315 3.2999995
1.3654959 1.165879 3.3
-0.6499607 1.2304893 3.3
-0.17068699 1.2034879 3.3
-0.14464998 1.2034879 3.3
-0.10414799 1.2034879 3.3
-0.075217992 1.2034879 3.3
0.069431998 1.2034879 3.3
0.096433334 1.2054166 3.3
1.0928019 -1.3207123 3.3329999
1.1830571 -1.3268809 3.3329999
1.2247061 -1.3307303 3.3329999
1.2600822 -1.3250952 3.3329999
1.3015112 -1.3282259 3.3329999
1.3294781 -1.329478 3.3329999
1.4983658 -1.3224653 3.3329999
1.5419822 -1.3292124 3.3329999
1.5755554 -1.3306215 3.3329999
1.6099833 -1.3324 3.3329999
-1.0168316 -1.3002589 3.3329999
1.0990951 -1.3004836 3.3329999
1.1376046 -1.3001505 3.3329999
1.1819625 -1.2978376 3.3329999
1.2211504 -1.3023149 3.3329999
1.2642215 -1.3022066 3.3329999
1.2963626 -1.3031807 3.3329999
1.3363532 -1.2993994 3.3329999
1.3703851 -1.2856492 3.3329999
1.475992 -1.3015112 3.3329999
1.5034103 -1.2990284 3.3329999
1.5369349 -1.3031808 3.3329999
1.5769291 -1.3004413 3.3329999
1.6058925 -1.307856 3.3329999
1.0665045 -1.2710395 3.3329999
1.1041353 -1.2643985 3.3329999
1.1357622 -1.261168 3.3329999
1.1676031 -1.2587674 3.3329999
1.2310094 -1.2567219 3.3329999
1.2622737 -1.2621495 3.3329985
1.2996744 -1.2628584 3.3329999
1.3307881 -1.2640874 3.3329999
1.3703851 -1.2798053 3.3329999
1.4765486 -1.2681177 3.3329999
1.5057074 -1.2648301 3.3329999
1.5381525 -1.2578908 3.3329999
1.5834426 -1.2634914 3.3329999
1.6012175 -1.244742 3.3329999
-1.0197536 -1.2126009 3.3329999
1.0285194 -1.2301325 3.3329999
1.0460509 -1.2301325 3.3329999
1.145089 -1.2318244 3.3329999
1.1762595 -1.2182623 3.3329999
1.2263991 -1.2195811 3.3329999
1.2622734 -1.2213669 3.3329985
1.2984678 -1.2257024 3.3329999
1.3340123 -1.2191501 3.3329999
1.3781431 -1.2183441 3.3329999
1.4162879 -1.2243829 3.3329999
1.4670744 -1.2203041 3.3329999
1.5017476 -1.2206208 3.3329985
1.5405673 -1.2196294 3.3329999
1.5786217 -1.2200683 3.332999
1.6012175 -1.2301325 3.3329999
-1.0226755 -1.1921475 3.3329999
1.1453967 -1.168772 3.3330002
1.1819205 -1.1796629 3.3329992
1.218273 -1.1845847 3.3329999
1.2649034 -1.1830889 3.3329999
1.2891555 -1.1792911 3.3330002
1.3494005 -1.1812565 3.3329999
1.3799405 -1.181565 3.3329999
1.4144926 -1.1743376 3.3329999
1.4625882 -1.1710445 3.3329999
1.500411 -1.1863036 3.3329999
1.5416098 -1.1824633 3.3329999
1.5797329 -1.185272 3.3329999
1.6096913 -1.174908 3.3329999
-1.0182925 -1.1380917 3.3329999
1.1075834 -1.1306149 3.3329999
1.1397963 -1.1399181 3.3329988
1.1796805 -1.1408515 3.332999
1.2222657 -1.1350574 3.3329999
1.2599779 -1.1389267 3.3329999
1.2906584 -1.1529101 3.3329999
1.3499317 -1.1395527 3.3329999
1.3843454 -1.1393361 3.3329999
1.4200583 -1.1395527 3.3329985
1.4609649 -1.1395528 3.3329985
1.5039595 -1.1383007 3.3329995
1.5381038 -1.1416956 3.3330002
1.576699 -1.1403152 3.332999
1.6070614 -1.1527013 3.3329999
-1.0168316 -1.1044896 3.3329999
1.1103333 -1.0986457 3.3329999
1.138763 -1.0978558 3.3329999
1.1725831 -1.1009325 3.3329999
1.2388983 -1.1132553 3.3329999
1.2663985 -1.0981299 3.3329999
1.2856492 -1.0957237 3.3329999
1.3483734 -1.0978667 3.3330002
1.3793087 -1.0991194 3.3329999
1.4196771 -1.0992805 3.332999
1.4633996 -1.1083853 3.3329999
1.5029681 -1.1055851 3.3329999
1.540328 -1.1039239 3.3329999
1.5762839 -1.0986454 3.332999
1.6056004 -1.1030285 3.3329999
-1.0168316 -1.040207 3.3329999
1.1067373 -1.0667292 3.3329999
1.1385214 -1.0575668 3.3329999
1.1754279 -1.0575765 3.3329999
1.2288805 -1.0571127 3.3329999
1.25854 -1.0572519 3.3329999
1.3503491 -1.0543994 3.3329999
1.3791506 -1.0577388 3.3329985
1.4167416 -1.0597918 3.3329999
1.5369352 -1.0402071 3.3329999
1.5737517 -1.0639721 3.3330002
-1.0197536 -1.0285194 3.3329999
1.1074114 -1.0226755 3.3329999
1.1432052 -1.0219449 3.3329999
1.1771725 -1.0215796 3.3329999
1.2330544 -1.0255975 3.3329999
1.253336 -1.0247381 3.3329999
1.3119465 -1.0051439 3.3329999
1.3445554 -1.016364 3.3329997
1.3791506 -1.0197532 3.3329995
1.4215963 -1.018523 3.3329999
1.4591668 -1.0136851 3.3329999
1.5016063 -1.0115192 3.3329999
1.5341402 -1.0211508 3.3329999
1.5807641 -1.0139096 3.3329999
-1.0168316 -0.99637806 3.3329999
1.0946472 -0.98176849 3.3329999
1.1483185 -0.98681533 3.3329999
1.1687719 -0.98176837 3.3329999
1.2505859 -0.97738552 3.3329999
1.3115294 -0.98427302 3.3329999
1.3389236 -0.98176849 3.3329992
1.3778518 -0.98254776 3.332999
1.4200581 -0.98176867 3.3329985
1.4609647 -0.98176867 3.3329985
1.5011261 -0.98239034 3.3329985
-1.0051439 -0.93501759 3.3329999
1.0723484 -0.94962722 3.3329999
1.0906103 -0.9408614 3.3329999
1.1466951 -0.93869698 3.3329999
1.1789649 -0.93950212 3.3329992
1.2088442 -0.93084347 3.3329999
1.3148685 -0.95839298 3.3329999
1.344088 -0.94300413 3.3330002
1.3763077 -0.9408614 3.3329999
1.4200584 -0.94086128 3.3329985
1.4609647 -0.94086111 3.3329985
1.4963204 -0.94933504 3.3329999
1.5419022 -0.9350177 3.3329999
1.5655701 -0.93151122 3.3329999
-1.0051439 -0.91456401 3.3329999
1.1044896 -0.91164219 3.3330002
1.1416955 -0.90735662 3.3330002
1.1803017 -0.90485036 3.3329999
1.2194189 -0.89875561 3.3329999
1.2528336 -0.89321154 3.3329999
1.2885711 -0.8824228 3.3329999
1.3499317 -0.89995438 3.3329999
1.3797722 -0.89995432 3.3329985
1.4228082 -0.90390754 3.3329999
1.4558083 -0.90253252 3.3329999
1.4960281 -0.90872014 3.3329999
1.5431224 -0.9004699 3.3329999
1.5632325 -0.8999545 3.3329999
-1.0109876 -0.84151578 3.3329999
1.1904778 -0.84402031 3.3329999
1.2158666 -0.85904741 3.3329999
1.2644998 -0.86113429 3.3329995
1.2898234 -0.85403836 3.3329999
1.3499317 -0.85904741 3.3329999
1.3759632 -0.86170375 3.3329999
1.4025264 -0.86489129 3.3329999
1.4623753 -0.85199434 3.3329999
1.485509 -0.8485285 3.3329999
1.5469533 -0.87407452 3.3329999
1.5632325 -0.87365705 3.3329999
-1.0109876 -0.83567196 3.3329999
1.189469 -0.82179284 3.3329999
1.2200681 -0.81684166 3.332999
1.2687019 -0.82515305 3.3329999
1.2951105 -0.82008833 3.3329999
1.347471 -0.81844795 3.3329999
1.3803904 -0.81902587 3.3329999
1.4227297 -0.81329823 3.3329999
1.4602187 -0.81826496 3.3329985
1.4872622 -0.83275002 3.3329999
1.2289894 -0.78206086 3.3329999
1.2519345 -0.78038001 3.3329999
1.3061028 -0.79184294 3.3329999
1.341627 -0.78000152 3.3329999
1.3777667 -0.77877128 3.3329999
1.4196688 -0.78171366 3.3330002
1.4567446 -0.78827173 3.3329999
1.5077158 -0.79476488 3.3329999
1.1570842 -0.73340434 3.3329999
1.1808138 -0.73561788 3.3329999
1.2229977 -0.74013156 3.3329992
1.2639434 -0.7406674 3.3329999
1.2961065 -0.7332505 3.3329999
1.3462791 -0.74314427 3.3329999
1.3783883 -0.74331361 3.332999
1.4091005 -0.75385791 3.3329999
-1.0051439 -0.69736731 3.3329999
1.1838529 -0.70409077 3.3329999
1.2172416 -0.71157587 3.3329999
1.265503 -0.70403135 3.3329999
1.3002586 -0.70126313 3.3329995
1.3419449 -0.70028913 3.3330002
1.3708887 -0.70126307 3.3329999
1.5008097 -0.69276303 3.3329999
-1.005144 -0.66035622 3.3329999
1.1892254 -0.67350483 3.3329999
1.2038351 -0.67788774 3.3329999
1.2643119 -0.65872532 3.3329992
1.3002586 -0.66035616 3.3329995
1.3339031 -0.66018921 3.3329999
1.3767852 -0.65896499 3.3329995
1.4122661 -0.66620004 3.3329999
1.4717536 -0.65046662 3.3329999
1.4989504 -0.65912586 3.3329999
-1.0051439 -0.63113683 3.3329999
-0.9993 -0.62529296 3.3329999
1.2327107 -0.61669904 3.3329999
1.2622734 -0.61944914 3.3329985
1.3002586 -0.61944908 3.3329995
1.3326088 -0.62007546 3.3329999
1.3831038 -0.61979288 3.3329999
1.4103181 -0.61993611 3.3329999
1.4784964 -0.63698071 3.3329999
1.5091767 -0.62091011 3.3329999
1.5252475 -0.61944914 3.3329999
-0.99579376 -0.57269824 3.3329999
1.2257893 -0.57791036 3.3329999
1.2622738 -0.57854205 3.3329985
1.3002586 -0.57854217 3.3329995
1.3340364 -0.57760715 3.3329997
1.3869427 -0.57919151 3.3329999
1.4151884 -0.57919145 3.3329999
1.4688958 -0.56685442 3.3329999
1.4914827 -0.57010102 3.3329999
-0.9993 -0.5464009 3.3329999
-0.47043073 -0.52010351 3.3329999
-0.42075789 -0.52010351 3.3329999
-0.39738244 -0.52010351 3.3329999
-0.24836403 -0.52010351 3.3329999
-0.22206669 -0.52010351 3.3329999
-0.18115966 -0.52010351 3.3329999
-0.15194036 -0.52010357 3.3329999
1.2359763 -0.52302545 3.3329999
1.262953 -0.5366838 3.3329992
1.2990556 -0.53918207 3.3329999
1.3359571 -0.54017591 3.3329999
1.3809216 -0.53586423 3.3329999
1.4142141 -0.53666115 3.3330002
1.462108 -0.53763521 3.332999
1.4915329 -0.53718567 3.3329999
-0.88534474 -0.48796228 3.3329999
-0.87657899 -0.50257194 3.3329999
-0.4917191 -0.49505842 3.3329999
-0.47335264 -0.50841582 3.3329999
-0.41863286 -0.51107216 3.3329999
-0.39738244 -0.51133776 3.3329999
-0.28342721 -0.49380615 3.3329999
-0.24836403 -0.51425964 3.3329999
-0.22119009 -0.49979615 3.3329999
-0.18115966 -0.49965006 3.3329995
-0.14954968 -0.50097823 3.3329999
1.2341169 -0.50575948 3.3329999
1.2631725 -0.50077373 3.3329999
1.2998414 -0.49923259 3.3329999
1.3324003 -0.49964997 3.3330002
1.3908386 -0.49088424 3.3329999
1.4214069 -0.49897581 3.3329999
1.4600419 -0.49841982 3.3329999
1.4869967 -0.50097817 3.3329999
-0.88556945 -0.46031633 3.3329999
-0.87463105 -0.45095116 3.3329999
-0.48504034 -0.47627455 3.3329999
-0.464968 -0.46623841 3.3329999
-0.21291976 -0.46623835 3.3329999
-0.18115965 -0.461665 3.3329985
-0.15427791 -0.46049619 3.3330002
1.1979913 -0.4704307 3.3329999
1.2038351 -0.4704307 3.3329999
1.2762989 -0.46867752 3.3329999
1.3012328 -0.46286368 3.3329999
1.3324006 -0.46166503 3.3329999
1.3834152 -0.46087518 3.3329999
1.4200584 -0.46166509 3.3329985
1.4598774 -0.46288824 3.3329992
1.4878467 -0.45815858 3.3329999
-0.88797444 -0.41988131 3.3329999
-0.87482578 -0.42426419 3.3329999
-0.2045351 -0.43828949 3.3329999
-0.17973115 -0.42036825 3.332999
-0.14348213 -0.41768211 3.3329999
1.2698963 -0.41440582 3.3329999
1.3002588 -0.42075795 3.3329995
1.3336638 -0.42123166 3.3329999
1.3810461 -0.42391679 3.3329999
1.4200583 -0.4207578 3.3329985
1.4609647 -0.42075792 3.3329985
1.4897349 -0.41761124 3.3329999
-0.88826662 -0.37985095 3.3329999
-0.87511796 -0.3827728 3.3329999
-0.22633721 -0.37647945 3.3329999
-0.17731939 -0.38385817 3.3329999
-0.14451706 -0.38127246 3.3329999
-0.10957238 -0.38715571 3.3329999
1.3020675 -0.38959062 3.3329999
1.3333135 -0.38131189 3.3329999
1.38949 -0.37805277 3.3329999
1.4184275 -0.37862778 3.3329992
1.4613459 -0.37946984 3.332999
1.4929893 -0.38172099 3.3329997
-0.88826674 -0.33894384 3.3329999
-0.21963175 -0.34072939 3.3329999
-0.17865515 -0.34161529 3.3329999
-0.14453813 -0.34264502 3.3330002
1.3385359 -0.33952826 3.3329999
1.3740375 -0.35136205 3.3329999
1.4280661 -0.34240696 3.3329999
1.4634973 -0.34439817 3.3330002
1.485639 -0.33894387 3.3329999
-0.88826662 -0.29803687 3.3329999
-0.87657899 -0.31264651 3.3329999
-0.21330085 -0.30388069 3.3329999
-0.17502365 -0.29190084 3.3329999
-0.13973698 -0.29219303 3.3329999
-0.10743712 -0.28589958 3.3329999
1.3082941 -0.2856186 3.3329999
1.3346168 -0.29642478 3.3329999
1.3966825 -0.28634912 3.3329999
1.4136829 -0.29113045 3.3329999
1.4608318 -0.29631028 3.3329992
1.4878469 -0.29764724 3.3330002
-0.88601899 -0.2611756 3.3329999
-0.87657899 -0.24544211 3.3329999
-0.17448097 -0.26088661 3.3329999
-0.14025263 -0.26005185 3.3329995
-0.10583881 -0.26232439 3.3329999
1.3047541 -0.2584784 3.3329999
1.3324003 -0.26005179 3.3330002
1.3966825 -0.26151273 3.3329999
1.4177208 -0.25946739 3.3330002
1.4609646 -0.26005182 3.3329995
1.4908338 -0.26005179 3.3329999
1.5515449 -0.2629737 3.3329999
1.5673847 -0.25743741 3.3329999
-0.88485777 -0.22450161 3.3329999
-0.87317008 -0.21670979 3.3329999
-0.16557604 -0.22596256 3.3329999
-0.14025262 -0.22206672 3.3329985
-0.1168772 -0.21037897 3.3329999
1.3148685 -0.22498859 3.3329999
1.3316921 -0.22295211 3.3329999
1.4375895 -0.21622281 3.3329999
1.4572185 -0.22281586 3.3329999
1.4931064 -0.22457117 3.3329999
1.5749202 -0.23959824 3.3329999
-0.88592911 -0.18232845 3.3330002
-0.87574416 -0.18616869 3.3329999
-0.17493875 -0.18229075 3.3329999
-0.14025262 -0.18115966 3.3329985
-0.11427993 -0.18700351 3.3329999
1.4634972 -0.18739307 3.3330002
1.4952743 -0.17852053 3.3329999
1.5427791 -0.16557606 3.3329999
1.5603106 -0.17239386 3.3329999
-0.88556945 -0.13980311 3.3329999
-0.87657899 -0.13148685 3.3329999
-0.16947195 -0.15778421 3.3329999
-0.14025262 -0.14025262 3.3329985
-0.11186817 -0.13399136 3.3329999
1.3411658 -0.13148683 3.3329999
1.3966825 -0.13733071 3.3329999
1.4237373 -0.13332655 3.3329999
1.4621633 -0.13770536 3.3329999
1.5024937 -0.13950661 3.3329985
1.5365175 -0.14275715 3.3329999
1.6655 -0.14025263 3.3329999
-0.88534474 -0.099345632 3.3329999
-0.87438744 -0.10738093 3.3329999
-0.13668139 -0.099994943 3.3329999
-0.11285954 -0.099710859 3.3329999
1.4192957 -0.099345624 3.3329999
1.4571832 -0.099001877 3.3329999
1.5131422 -0.10769399 3.3329999
1.5307475 -0.096251808 3.3329999
-0.88646853 -0.062034819 3.3329999
-0.16362807 -0.055516668 3.3329999
-0.13581935 -0.059244651 3.3329999
-0.10965831 -0.060157385 3.3329999
1.3966825 -0.064282462 3.3329999
1.4142141 -0.063751191 3.3329999
1.4613822 -0.063865036 3.3329999
1.5046115 -0.05533405 3.3329999
1.5395645 -0.059315182 3.3329999
1.5670773 -0.062744595 3.3329999
-0.88680565 -0.020453509 3.3329999
-0.18950805 -0.016696746 3.3329999
-0.13148683 -0.035063159 3.3329999
-0.099345617 -0.020453507 3.3329999
1.4668087 -0.017797209 3.3329999
1.504794 -0.020003982 3.3329999
1.5297927 -0.016882265 3.3329999
-0.88709795 0.009350176 3.3329999
-0.1753158 0 3.3329999
-0.15388831 0.025323391 3.3329999
-0.093501762 0.017082054 3.3329999
1.4668088 0.0041741859 3.3329999
1.4993675 0.022540605 3.3329999
1.5326294 0.015686151 3.3329999
1.5825173 0.02337544 3.3329999
-0.098814368 0.047813397 3.3329999
1.4784964 0.073048249 3.3329999
1.5014952 0.06145478 3.3329999
1.5291433 0.047724854 3.3329999
1.6021914 0.060386553 3.3329999
1.477766 0.10153706 3.3329999
1.5019939 0.098980412 3.3329988
1.5374826 0.10318064 3.3329999
1.5661545 0.1081114 3.3329999
1.6202101 0.09934561 3.3329999
1.6538123 0.081814036 3.3329999
1.4765486 0.12953889 3.3329999
1.5026345 0.13936335 3.332999
1.5410869 0.14056022 3.3329999
1.5692853 0.14150487 3.3329999
-0.16947193 0.16655 3.3329999
-0.13674633 0.18408158 3.3329999
-0.11220212 0.19635367 3.3329999
1.5100533 0.16947193 3.3329999
1.5400108 0.17746881 3.3329999
1.5799675 0.17868045 3.3329999
1.6148534 0.1707706 3.3329999
1.6421247 0.16947193 3.3329999
-0.92625177 0.2045351 3.3329999
-0.89151317 0.21849543 3.3329999
-0.87657899 0.22206667 3.3329999
-0.095060132 0.21992396 3.3330002
1.510372 0.22817616 3.3329999
1.5391824 0.2207181 3.3329999
1.565424 0.21950997 3.3329999
-0.88534474 0.26005179 3.3329999
-0.084735982 0.26005182 3.3329999
1.3411658 0.24836405 3.3329999
1.50709 0.25900823 3.3329999
1.5366429 0.25596109 3.3329999
1.5782752 0.26210791 3.3329999
1.6197231 0.27125251 3.3329999
1.6538125 0.2688176 3.3330002
-0.88592911 0.28518033 3.3329999
-0.084735975 0.28927103 3.3329999
1.5060462 0.2896885 3.3329999
1.54584 0.30304587 3.3329999
1.5776653 0.29148468 3.3329999
1.6194233 0.28859681 3.3329999
1.6538123 0.29166174 3.3329999
-0.88631874 0.34543705 3.3329999
1.4681073 0.33569732 3.3329999
1.5018719 0.35480577 3.3329999
1.5437528 0.34167102 3.3330002
1.5736951 0.34403369 3.3329999
1.6713439 0.3243342 3.3329999
-0.88476038 0.37459138 3.3329999
-0.87657899 0.38861668 3.3329999
1.4784964 0.36524123 3.3329999
1.5047153 0.37606025 3.3329999
1.5355322 0.37447459 3.3329997
1.5781584 0.37842944 3.3329999
1.6296021 0.37818125 3.3329999
1.6497215 0.38686353 3.3329999
-0.084735982 0.4236798 3.3329999
-0.075970188 0.43244562 3.3329999
0.64866847 0.43828949 3.3329999
0.78015524 0.43536755 3.3329999
0.80353069 0.43244562 3.3329999
1.5415086 0.42126608 3.3329999
1.5787652 0.42275715 3.3329999
1.6655002 0.41199213 3.3329999
1.6888754 0.40907019 3.3329999
-0.084735967 0.44413334 3.3329999
-0.07597018 0.44413334 3.3329999
0.62821496 0.44413334 3.3329999
0.64574653 0.44413334 3.3329999
0.71002895 0.44413334 3.3329999
0.74509209 0.44413334 3.3329999
0.87657899 0.44413334 3.3329999
0.90433723 0.45143813 3.3329999
0.94553655 0.46166497 3.3329999
0.96618479 0.45971698 3.3329999
1.5417162 0.46272749 3.3329999
1.573668 0.45936912 3.3329999
1.6187493 0.47919655 3.3329999
1.6626725 0.46750876 3.3329999
1.6859534 0.46750879 3.3329999
1.5164816 0.51425964 3.3329999
1.540082 0.50347102 3.3329999
1.6250104 0.49004939 3.3329999
1.6596564 0.49638435 3.3329999
1.6872057 0.50131971 3.3329999
-0.092332982 0.52945369 3.3329999
1.4751571 0.54013962 3.3329999
1.5042464 0.539644 3.3329999
1.541109 0.53613245 3.3329999
1.5739464 0.54223937 3.3329999
1.6180998 0.5334146 3.3329999
1.6638304 0.54264414 3.3329999
1.6957506 0.53797883 3.3329999
1.5135597 0.56101054 3.3329999
1.5476488 0.56782842 3.3329999
1.5755049 0.57553673 3.3329999
1.6927713 0.59607375 3.3329999
1.7239386 0.59607369 3.3329999
-0.090579838 0.62107241 3.3329999
1.6602405 0.63464314 3.3329999
-0.088826686 0.65568107 3.3330002
1.6362808 0.64574653 3.3329999
1.6585741 0.66230404 3.3329999
1.6897981 0.66558492 3.3329999
1.6343329 0.71197695 3.3329999
1.6617941 0.70382881 3.3329995
1.6933558 0.69892555 3.3330002
1.5457008 0.75970179 3.3329999
1.5768681 0.75580591 3.3329999
1.6263715 0.74445701 3.3329999
1.6563598 0.74022228 3.3329999
1.6979336 0.74479997 3.3329999
1.7239386 0.74509209 3.3329999
1.5148584 0.78567439 3.3329999
1.5388831 0.76846761 3.3329999
1.5842704 0.77489585 3.3329999
1.623132 0.77285045 3.3329999
1.6450465 0.76554561 3.3329999
1.6988937 0.78892094 3.3329999
1.7239386 0.77723336 3.3329999
1.6129053 0.80791354 3.3329999
1.6746833 0.81396616 3.3329999
1.6979851 0.81882781 3.3329999
1.7268605 0.83275002 3.3329999
1.7122509 0.84151578 3.3329999
1.7239386 0.84151578 3.3329999
1.5875818 0.90579838 3.3329999
1.6038147 0.90449971 3.3329999
1.6644044 0.89520633 3.3329999
1.6917973 0.90579826 3.3329999
-0.9047026 0.95035768 3.3329999
1.5924518 0.92917365 3.3329999
1.6012175 0.92625177 3.3329999
1.706407 0.94837493 3.3329999
1.7239386 0.95547104 3.3329999
1.6983713 0.98103821 3.3329999
1.7297825 0.97884649 3.3329999
1.6655 1.0139097 3.3329999
1.6996775 1.0207275 3.3329999
1.6968839 1.0505962 3.3329999
1.0226754 1.1085801 3.3329999
1.0616345 1.1044896 3.3329999
1.1005937 1.1042116 3.3329999
1.1393362 1.1044897 3.3329999
1.1772943 1.0993762 3.3329999
1.2213668 1.1014595 3.3329999
1.262805 1.1113961 3.3329999
1.3366855 1.1087751 3.3330002
1.3674631 1.1161772 3.3329999
1.5398571 1.1161772 3.3329999
1.5903646 1.112003 3.3329999
1.6158274 1.1044896 3.3329999
0.43595195 1.1524092 3.3329999
0.45070767 1.1534318 3.3329999
0.55224478 1.1570842 3.3329999
0.57562017 1.1570843 3.3329999
0.66490144 1.1512402 3.3329999
0.69347137 1.1541623 3.3329999
0.74996203 1.1408513 3.3329999
0.77853191 1.1304622 3.3329999
0.80645263 1.1453965 3.3329999
0.9408614 1.1320391 3.3329999
0.98422915 1.1404754 3.3329999
1.0077412 1.13241 3.3329999
1.0460509 1.127865 3.3329999
1.1132553 1.1220211 3.3329999
1.127865 1.1220211 3.3329999
1.1965303 1.126404 3.3329999
1.2248729 1.1220211 3.3329999
1.2622737 1.1282824 3.3329999
1.3031807 1.1278648 3.3329999
1.3414314 1.1241461 3.3329999
1.3696547 1.1337087 3.3329999
1.4356416 1.125917 3.3329999
1.4600421 1.1318632 3.3329999
1.5135596 1.1398963 3.3329999
1.5387485 1.1355225 3.3329999
1.5793031 1.1264039 3.3329999
-0.44705528 1.1716939 3.3329999
-0.42910627 1.1787901 3.3329999
-0.22022122 1.1887643 3.3329999
-0.1801284 1.1918037 3.3329999
-0.095095538 1.195335 3.3329999
-0.056212369 1.1907562 3.3329999
-0.021288346 1.1904777 3.3329999
0.014025263 1.1927317 3.3329999
0.061360531 1.1979913 3.3329999
0.1460965 1.1892254 3.3329999
0.18032482 1.1896428 3.3329999
0.22047286 1.1804596 3.3329999
0.2579647 1.1863036 3.3329999
0.29758731 1.183157 3.3329999
0.32809103 1.1771204 3.3329999
0.37546799 1.1755898 3.3329999
0.41257653 1.1711096 3.3329999
0.46137276 1.1757846 3.3329999
0.49965 1.1804597 3.3329999
0.53551006 1.1719596 3.3329999
0.59607369 1.1629281 3.3329999
0.62051165 1.165053 3.3329999
0.64866847 1.1643891 3.3329999
0.71879476 1.1629281 3.3329999
0.72756052 1.1629281 3.3329999
1.5194036 1.1629281 3.3329999
-0.17823772 1.2067571 3.3329999
-0.14268759 1.2082181 3.3329999
-0.10259221 1.2051339 3.3329999
0.073048249 1.2038351 3.3329999
0.098176852 1.2055882 3.3329999
0.89393693 -1.3647438 3.3989999
0.99524981 -1.3647438 3.3989999
1.022664 -1.3647438 3.3989999
1.0619971 -1.3647438 3.3989999
1.0906031 -1.3647439 3.3989999
1.1442393 -1.3647438 3.3989999
1.1710573 -1.3647438 3.3989999
1.4213598 -1.3647438 3.3989999
1.4779757 -1.3677236 3.3989999
1.4980893 -1.3684686 3.3989999
0.82058835 -1.3374674 3.3990002
0.85877544 -1.3376279 3.3990006
0.89393693 -1.3409055 3.3990006
0.99430025 -1.3418946 3.3911538
1.0181681 -1.3406669 3.3967834
1.0606633 -1.3421828 3.3990006
1.0949945 -1.3432833 3.3788118
1.1417105 -1.3430033 3.3850913
1.1753234 -1.3473554 3.3827388
1.2684929 -1.3481424 3.3650002
1.2920927 -1.3491257 3.365
1.3569925 -1.3363426 3.3650002
1.3813299 -1.33708 3.3649998
1.4226292 -1.3356045 3.3649998
1.4594654 -1.3375846 3.3649995
1.4978541 -1.3439631 3.3650005
1.5363513 -1.3505025 3.365001
1.591382 -1.3414379 3.3650005
1.610691 -1.3510923 3.3650002
-1.0449131 -1.2952154 3.3989999
0.8279559 -1.3077023 3.3989995
0.85817945 -1.2991881 3.3990006
0.89290476 -1.2976857 3.3951147
0.95949233 -1.2962085 3.3989999
0.98167539 -1.3001817 3.3990006
1.0227114 -1.2993152 3.3909051
1.0594076 -1.294849 3.3778315
1.0893867 -1.2937787 3.3650007
1.1563934 -1.2940594 3.3650002
1.1787672 -1.2910204 3.3692501
1.2239639 -1.2906177 3.3740673
1.2545857 -1.2979926 3.3650007
1.3569925 -1.2979926 3.3650002
1.3844693 -1.2966443 3.3649995
1.4215231 -1.2983615 3.3650007
1.4629203 -1.2989538 3.3751278
1.4874611 -1.294638 3.3723915
1.5553788 -1.2943052 3.365
1.5740619 -1.2923386 3.3650005
0.82975692 -1.2597635 3.3989995
0.85861558 -1.2608143 3.3990004
0.89393681 -1.2604513 3.3990004
0.99326324 -1.2683973 3.3989999
1.0173528 -1.2616717 3.3960865
1.0659518 -1.2676444 3.3894382
1.0971496 -1.2577972 3.3811505
1.1297607 -1.2497507 3.3717999
1.1830838 -1.2642787 3.3650007
1.2154233 -1.2603287 3.3683994
1.2920927 -1.2625928 3.365
1.3481425 -1.2590529 3.3650002
1.37946 -1.2608436 3.3658497
1.4211543 -1.2633302 3.3649998
1.4623232 -1.2575476 3.3692501
1.4970303 -1.2646234 3.3672662
1.5426145 -1.2612314 3.3650007
1.5870911 -1.2620031 3.365001
-1.0343736 -1.2126693 3.3905001
0.82870376 -1.2333416 3.3795714
0.85354429 -1.2243625 3.3989999
0.89558089 -1.2219191 3.3990002
0.94757324 -1.2222556 3.3990006
0.97854358 -1.2187196 3.3970008
1.0220435 -1.2217616 3.3933346
1.058826 -1.2265285 3.3922002
1.1006023 -1.2259138 3.3836191
1.1401353 -1.2251393 3.3801918
1.1734571 -1.217605 3.3685794
1.2139182 -1.2301431 3.3650005
1.3569924 -1.2301431 3.365
1.3695297 -1.2353054 3.365
1.4214704 -1.2164468 3.3650002
1.4616185 -1.2175567 3.365
1.4938715 -1.2059532 3.3650002
1.5516912 -1.2389929 3.365
1.5811911 -1.2035931 3.365
-1.0307773 -1.1770252 3.382
0.90004927 -1.1798441 3.3990006
0.94280553 -1.1793349 3.3990009
0.97831291 -1.1828011 3.3971119
1.0282557 -1.1821153 3.3908398
1.0566099 -1.1787618 3.3746243
1.1002107 -1.1806318 3.3729582
1.1329706 -1.184916 3.3661332
1.1724077 -1.194322 3.3650002
1.3810135 -1.1732506 3.3650007
1.4342817 -1.1906132 3.3650002
1.4594654 -1.1893091 3.365001
1.5019102 -1.1892121 3.3650007
1.5336963 -1.1844183 3.365001
1.5865993 -1.1785185 3.3650005
1.6047909 -1.1829433 3.365
-1.0301247 -1.1360024 3.3922002
0.87307847 -1.1352999 3.3989999
0.90254521 -1.1465569 3.3989992
0.94664621 -1.1432257 3.392818
0.98031634 -1.1440288 3.3925233
1.020892 -1.1374201 3.3854005
1.0619501 -1.139441 3.3664787
1.0979458 -1.137795 3.377439
1.1386935 -1.1327935 3.365
1.1652434 -1.1239436 3.365
1.3868853 -1.1461668 3.3650007
1.404192 -1.1327935 3.365
0.90883589 -1.1084819 3.3989999
1.0218786 -1.1014516 3.3858778
1.0587482 -1.0978459 3.3831336
1.0953739 -1.1013215 3.3776288
1.1406602 -1.1062437 3.3650002
1.1681933 -1.1032937 3.3650002
1.3569925 -1.0914938 3.3650002
1.3628923 -1.0973938 3.365
1.4159919 -1.0973938 3.365
0.98780042 -1.0563354 3.3989995
1.0199944 -1.0602127 3.3894808
1.0657208 -1.0604126 3.3824153
1.0989304 -1.0613675 3.3666584
1.1296166 -1.0570017 3.3650007
1.3569924 -1.0767438 3.365
1.3658423 -1.0708439 3.365
-1.0317805 -1.0302906 3.382
0.98712319 -1.0131285 3.3989997
1.0244712 -1.0233864 3.3914449
1.0612824 -1.0207392 3.3848784
1.0993198 -1.0214521 3.3685784
1.1314526 -1.0217671 3.3650007
1.1665077 -1.0198514 3.3650002
0.98109579 -0.97867483 3.3990004
1.0210748 -0.97836423 3.3990006
1.0631272 -0.98055685 3.3872554
1.1030478 -0.98234433 3.3650005
1.1417664 -0.9816047 3.3831341
1.1622934 -0.98529446 3.365
0.98929024 -0.95949239 3.3989999
1.0240545 -0.95005625 3.3989999
1.0625527 -0.94805539 3.3920262
1.0986719 -0.93872899 3.3785999
1.1350411 -0.94539946 3.3650007
1.1711433 -0.95579457 3.365
-1.0310073 -0.89989656 3.3989999
1.0608052 -0.88201797 3.3989999
1.1048864 -0.89775503 3.3814852
1.1365304 -0.89522177 3.365
1.1790618 -0.89027393 3.365001
1.2061564 -0.8896268 3.3698573
1.3776422 -0.90859485 3.365
-1.0250478 -0.85817951 3.3989999
1.0632712 -0.86598855 3.3990002
1.0997127 -0.86332977 3.382396
1.1397274 -0.86177105 3.3788323
1.176857 -0.85963821 3.3726997
1.2075267 -0.86991727 3.365
1.1466379 -0.81573379 3.3916082
1.1779118 -0.81937152 3.3784425
1.2074616 -0.80596524 3.38625
1.3569924 -0.80239546 3.365
1.3771216 -0.81246012 3.3650007
1.4130419 -0.80239546 3.365
1.1144414 -0.77772516 3.3989999
1.1435819 -0.78232801 3.3922009
1.1800972 -0.77830321 3.3792806
1.2179412 -0.78082204 3.3692501
1.3569924 -0.79354548 3.365
1.364859 -0.79452884 3.3650002
1.415992 -0.79649556 3.3650002
-1.019088 -0.72110915 3.3989999
1.1497577 -0.74112916 3.3880007
1.1677613 -0.7370674 3.3740666
1.3569924 -0.74339575 3.365
1.3628924 -0.73159587 3.3650002
-1.0101042 -0.70076001 3.3747144
1.078684 -0.69727081 3.3989999
1.0992702 -0.69769883 3.3947501
1.1299366 -0.69965476 3.3989995
1.1716021 -0.7013759 3.378269
1.226261 -0.69966018 3.3660965
1.2547587 -0.69795913 3.3664174
1.2861928 -0.69619602 3.365
1.3628923 -0.68439615 3.365
-1.0088944 -0.66079634 3.3650002
1.104906 -0.67581624 3.3989999
1.1291419 -0.66628104 3.3989995
1.1836145 -0.66311306 3.387038
1.2208517 -0.65910554 3.3676674
1.2504458 -0.665308 3.3650007
1.3679496 -0.65826774 3.3650007
-1.0088943 -0.63719642 3.365
1.1925433 -0.62136447 3.3989992
1.2158866 -0.61926508 3.3745451
1.244893 -0.63424641 3.365
1.3779106 -0.62191004 3.3650007
-1.0063725 -0.56832427 3.3763332
1.1927105 -0.57331163 3.3989995
1.2115973 -0.5763061 3.3757365
1.2478429 -0.56049681 3.365
1.3774687 -0.57802308 3.3649998
-1.0080614 -0.54850399 3.382
-0.45724741 -0.52804708 3.365
-0.3794224 -0.5245738 3.3921998
-0.33209711 -0.52477002 3.382
-0.29843998 -0.52755541 3.3650005
-0.26844847 -0.52804708 3.365
1.1905172 -0.54077661 3.3937695
1.2213562 -0.53954685 3.3804553
1.2512846 -0.54673028 3.3650005
1.3156925 -0.52509707 3.365
1.3347807 -0.53620285 3.3650007
1.3759215 -0.54255116 3.3650005
1.404192 -0.53984696 3.365
-0.88498288 -0.48991638 3.380111
-0.86500812 -0.50260049 3.3831329
-0.62098819 -0.50358456 3.3989999
-0.57523549 -0.49725369 3.3873909
-0.54087275 -0.49741536 3.3774669
-0.50585806 -0.4938015 3.3650005
-0.45675167 -0.50014383 3.3768265
-0.4192847 -0.49630454 3.3815148
-0.3798185 -0.5008114 3.386251
-0.34119073 -0.50040001 3.3808675
-0.30220941 -0.50175947 3.3650005
-0.26165664 -0.50026226 3.3650002
1.1978027 -0.4926779 3.3854001
1.2203372 -0.50135225 3.3758802
1.2562392 -0.4883357 3.3650007
1.3274925 -0.51919705 3.365
1.3785341 -0.50314361 3.3650002
1.410092 -0.51329708 3.365
-0.88499498 -0.4749473 3.365
-0.86882085 -0.45900226 3.3814514
-0.60986364 -0.46484724 3.3989999
-0.58254898 -0.47378665 3.3989997
-0.53567135 -0.46057457 3.3919654
-0.50442809 -0.45931786 3.3805845
-0.45893091 -0.45574009 3.3756857
-0.41898939 -0.45917895 3.3744884
-0.38072032 -0.4599255 3.3852558
-0.34185466 -0.45991102 3.3922005
-0.30095911 -0.45999366 3.3670406
-0.25959852 -0.46019751 3.3650007
-0.22788623 -0.45675573 3.3650005
1.1899849 -0.46389681 3.3841248
1.2204379 -0.4575026 3.3747151
1.2624636 -0.45931271 3.3840418
1.2861054 -0.4540309 3.3714764
1.3720962 -0.46161333 3.3650002
-0.86708039 -0.41851377 3.3725548
-0.52642953 -0.43306279 3.3989999
-0.49959993 -0.42044243 3.3845756
-0.46078447 -0.41838604 3.3701746
-0.41898033 -0.41898027 3.3656945
-0.37950924 -0.41950735 3.3763335
-0.33990076 -0.4175539 3.3683999
-0.3013317 -0.41897839 3.3685424
-0.25970802 -0.41907161 3.3663883
-0.21925926 -0.42054406 3.3650002
-0.1946989 -0.42479756 3.365
1.1844183 -0.4217844 3.3990002
1.2183629 -0.41818029 3.3918426
1.2576748 -0.41733146 3.3811057
1.2843956 -0.4186396 3.3706665
1.3774315 -0.41215476 3.3650002
-0.88499498 -0.36579791 3.365
-0.86967993 -0.38200253 3.3797338
-0.48883009 -0.38084257 3.3941422
-0.45754287 -0.38044849 3.3823786
-0.42070016 -0.38172996 3.3959103
-0.38226855 -0.38185269 3.3959785
-0.34080502 -0.38296375 3.3859234
-0.30001327 -0.38084289 3.3649998
-0.26048356 -0.38113785 3.3649998
-0.2097766 -0.38087562 3.365001
-0.18938895 -0.3728779 3.3650002
1.1902132 -0.39673775 3.3989999
1.2223755 -0.38168886 3.3772411
1.2596428 -0.38054782 3.3649995
1.2959102 -0.37777141 3.3649998
1.32823 -0.36948541 3.365
1.3801386 -0.38168249 3.3649998
1.4056669 -0.37612286 3.365
1.4926915 -0.38349783 3.365
-0.88453782 -0.34333542 3.3806925
-0.87401301 -0.34004548 3.3871744
-0.48570579 -0.35161519 3.3989999
-0.45968333 -0.34203058 3.3922002
-0.41593754 -0.33620241 3.3990002
-0.38062635 -0.33819669 3.3816385
-0.34061268 -0.34108949 3.3822901
-0.30065578 -0.34265879 3.3874409
-0.25998327 -0.34206989 3.3650005
-0.21633212 -0.34023139 3.3650005
-0.18466894 -0.32921815 3.3650002
-0.15929911 -0.32744816 3.365
1.188936 -0.33671623 3.3989999
1.2308763 -0.34644586 3.3876669
1.2620639 -0.34490466 3.3888924
1.2978455 -0.34108707 3.3837016
1.330718 -0.33974391 3.3748419
1.379297 -0.33975178 3.3649998
1.417303 -0.33957583 3.3649995
1.4867915 -0.35399798 3.365
-0.88350642 -0.29350886 3.382
-0.87156612 -0.3008393 3.3886974
-0.46473941 -0.31458202 3.3854001
-0.41419077 -0.30691838 3.3989992
-0.37954012 -0.30104399 3.3990006
-0.34069988 -0.29765531 3.3867028
-0.30002803 -0.2968902 3.3768265
-0.25959849 -0.30089828 3.3650007
-0.21905518 -0.29938549 3.3649998
-0.18289898 -0.30653015 3.3650007
-0.15693913 -0.31151822 3.3650002
1.1561584 -0.29499918 3.3989999
1.1808999 -0.29129702 3.3990006
1.222519 -0.29330793 3.3990006
1.2641186 -0.29843742 3.3990002
1.2947427 -0.29851851 3.3806405
1.3280927 -0.30803946 3.3710005
1.38076 -0.3008399 3.3657091
1.4222605 -0.30486146 3.3658943
1.4479501 -0.29843998 3.3650005
-0.88367188 -0.26536641 3.380111
-0.87459713 -0.258724 3.3850911
-0.38041985 -0.25593081 3.3989992
-0.33763048 -0.26160347 3.3972113
-0.30020371 -0.25861904 3.3905001
-0.26000607 -0.26000607 3.3705521
-0.21829879 -0.25959846 3.3650007
-0.19201712 -0.25477126 3.3650005
1.1799967 -0.268181 3.3989997
1.2214115 -0.25930834 3.3873899
1.2626756 -0.2566525 3.3952224
1.2936244 -0.26039043 3.3805225
1.3245425 -0.24189863 3.365
1.3805921 -0.25959858 3.3650007
1.4185205 -0.25510326 3.3650007
1.4477041 -0.26033601 3.365
1.5044914 -0.24484861 3.365
-0.87360722 -0.22120674 3.3811047
-0.37545353 -0.22646403 3.3989999
-0.33759901 -0.21888566 3.397419
-0.29749608 -0.21824202 3.3704097
-0.25950736 -0.21922839 3.3736811
-0.2184922 -0.21848129 3.3677764
-0.18345211 -0.21995813 3.3649998
1.2372087 -0.23361552 3.3989999
1.2625293 -0.22271839 3.3815644
1.2995253 -0.21875879 3.3739824
1.3330818 -0.21177776 3.365001
1.3805923 -0.21829873 3.3650007
1.4242473 -0.21944773 3.3715112
1.4465111 -0.21544912 3.371182
1.4956415 -0.23599866 3.365
-0.88350642 -0.16305386 3.382
-0.87611312 -0.17952101 3.3775265
-0.33447689 -0.19228142 3.3892853
-0.29629621 -0.18389459 3.3910675
-0.25906807 -0.17979425 3.3691461
-0.21829878 -0.17994903 3.365
-0.18879893 -0.17503235 3.365
1.2674961 -0.18149248 3.3960433
1.3004494 -0.18271917 3.3940246
1.3382884 -0.1789436 3.3736672
1.3809201 -0.17999019 3.3658094
1.4255735 -0.18018857 3.3814509
1.4522276 -0.17943068 3.3756852
1.4859488 -0.16941334 3.3650002
-0.88498592 -0.15193918 3.3763332
-0.87454879 -0.13919744 3.3812611
-0.25287971 -0.14283156 3.3715804
-0.21829879 -0.14159919 3.3650007
-0.18062976 -0.14023766 3.3649998
1.2723039 -0.14949861 3.3866363
1.2957829 -0.15239498 3.3989999
1.340426 -0.14317113 3.3763342
1.3808732 -0.14162479 3.3656945
1.4175652 -0.14612252 3.365
1.457828 -0.1512537 3.3650005
1.4926915 -0.15929912 3.3650002
1.5398912 -0.14454918 3.365
-0.88499677 -0.086125776 3.3876667
-0.87256432 -0.10655709 3.3763335
-0.24425863 -0.11327936 3.3650002
-0.21759248 -0.10094484 3.3657238
-0.17994903 -0.10029945 3.365
-0.15158378 -0.098484062 3.3650007
1.268066 -0.08939369 3.3989999
1.3004655 -0.094501905 3.3990004
1.3424079 -0.10153231 3.389457
1.3858578 -0.099667884 3.3840408
1.4186342 -0.10054776 3.3678331
1.4502118 -0.1044294 3.3650002
-0.88482416 -0.059314292 3.3819995
-0.87795621 -0.051066048 3.3777499
-0.21145244 -0.062951408 3.3820004
-0.18068652 -0.05914719 3.3649998
-0.14808916 -0.057819672 3.365001
-0.11357436 -0.048674721 3.365
1.263431 -0.068535186 3.3989995
1.2988746 -0.072142288 3.3989992
1.3472855 -0.061672878 3.3970008
1.3820913 -0.0594837 3.3802426
1.4234445 -0.057912838 3.3649995
1.4577947 -0.051596865 3.3679571
1.4956416 -0.04365975 3.3650002
-0.88612342 -0.022760963 3.3728464
-0.87808275 -0.028625794 3.3763332
-0.20354885 -0.035399798 3.365
-0.17527819 -0.023845699 3.3650005
-0.14204167 -0.019912386 3.3649998
-0.11504935 -0.020649882 3.3650005
1.2662828 -0.01385932 3.380111
1.2978133 -0.0096270135 3.3989995
1.3443321 -0.020651797 3.3968756
1.3813077 -0.023089508 3.3824363
1.4189459 -0.019729732 3.3704412
1.4575025 -0.021703448 3.3650002
1.5019102 -0.023231117 3.3650007
1.5236664 -0.020649884 3.365
-0.88794494 0.0029499833 3.365
-0.16772763 0.0075856717 3.3650002
-0.13954104 0.016053397 3.3650002
-0.1093763 0.019288352 3.3650002
1.2673473 0.01635476 3.3747146
1.3023859 0.018169452 3.3990004
1.3407568 0.017133785 3.3990006
1.3743768 0.02298695 3.3965709
1.421725 0.017241642 3.3743806
1.4589998 0.019252522 3.3649995
1.4985912 0.018964177 3.365
1.5292715 0.01415992 3.365001
-0.12895641 0.045514029 3.3650002
-0.11209936 0.044249751 3.3650002
1.2753501 0.050656427 3.3989999
1.2993587 0.054828137 3.3990006
1.3482555 0.060655862 3.3979702
1.3733577 0.061550036 3.3975835
1.4217951 0.059486113 3.3814528
1.459558 0.059839461 3.3665457
1.4928946 0.053913493 3.365
1.5221914 0.047199734 3.365
1.3450767 0.10222269 3.3839626
1.3826524 0.10130616 3.3914444
1.4166033 0.096895888 3.3931718
1.4640917 0.10015283 3.3864086
1.4855274 0.10029944 3.3650007
-0.21156508 0.15494907 3.3989999
-0.18879893 0.15929911 3.365
1.3423653 0.13965057 3.3779211
1.370067 0.14103591 3.3773639
1.422421 0.14598626 3.39013
1.4629846 0.14077316 3.3859243
1.4884304 0.1474992 3.365001
-0.89807838 0.19329289 3.3921998
-0.24732256 0.17282781 3.3989999
-0.21782266 0.17878734 3.3990006
-0.18287876 0.18209839 3.3809373
-0.15018097 0.19040804 3.3650005
1.3417001 0.17918469 3.3989995
1.3829783 0.17565607 3.3833077
1.4122486 0.17900507 3.3757803
1.4632992 0.17907354 3.3905015
1.4976838 0.18108363 3.3649998
1.5392106 0.1863028 3.3650002
1.5731839 0.18121329 3.3650007
-0.92039478 0.20059887 3.365
-0.89042884 0.21187529 3.3811057
-0.87795621 0.22281337 3.3777499
-0.25328213 0.21156508 3.3989999
-0.20486057 0.21379992 3.3989999
-0.17893508 0.22060123 3.3947506
-0.13944416 0.2183446 3.3721168
-0.11424481 0.22527145 3.3650005
1.3170671 0.22944382 3.3989999
1.340395 0.22204195 3.3935611
1.3807613 0.22016987 3.3968065
1.4187315 0.21899848 3.3956833
1.4618129 0.21987149 3.389287
1.4972804 0.21698765 3.3650005
1.5328112 0.20590885 3.3650002
1.5782411 0.20059887 3.365
-0.884646 0.26079091 3.3849998
-0.87909502 0.24484861 3.365
-0.22944383 0.2592417 3.3989999
-0.1728278 0.25770041 3.3990002
-0.13972558 0.25861409 3.3905008
-0.1059207 0.25923929 3.3669999
1.3170671 0.26520127 3.3989999
1.3411602 0.25988227 3.3861709
1.3814576 0.25377464 3.3921995
1.4259253 0.2514146 3.3904998
1.4632949 0.25959393 3.3841262
1.4926914 0.25959849 3.3649995
1.5457913 0.2753318 3.365
1.574111 0.27375844 3.3650002
-0.88978267 0.30046794 3.3859234
-0.23143038 0.28208679 3.3989999
-0.16388842 0.28010026 3.3989999
-0.13764706 0.29990152 3.3990002
-0.10472444 0.30170295 3.3692498
1.3441417 0.29912379 3.3843341
1.378341 0.30391359 3.3933332
1.4183801 0.3098982 3.3989995
1.4636782 0.29794315 3.3858786
1.4972802 0.30220941 3.3650005
1.5383389 0.29856932 3.3649995
1.5634911 0.28319839 3.365
-0.88747799 0.33615077 3.3826795
-0.87808275 0.35223031 3.3763332
-0.29400593 0.34764215 3.3989999
-0.21057183 0.33373645 3.3989999
-0.17997932 0.3408879 3.3990004
-0.13923308 0.33809972 3.3873904
-0.1021767 0.34219804 3.3650005
1.3418875 0.33349356 3.3964815
1.3791915 0.33648893 3.3947501
1.4199444 0.34233722 3.3837602
1.4595022 0.34116161 3.3770425
1.4981376 0.34008011 3.3649998
1.5343719 0.33839166 3.3649998
-0.88350695 0.37551877 3.3888001
-0.87742722 0.38808709 3.3763332
-0.21156508 0.39631206 3.3989999
-0.18176717 0.39929184 3.3989999
-0.13670911 0.38267729 3.3990006
-0.099882342 0.38058606 3.3735006
1.4286773 0.37728426 3.3845754
1.4652436 0.38312367 3.3820007
1.4900024 0.38417932 3.3664787
1.5546412 0.3893978 3.3650002
1.5704639 0.38886145 3.3650005
1.6637906 0.37464786 3.365
-0.87611616 0.40254897 3.3763332
-0.181105 0.41187319 3.3989992
-0.13636947 0.4195829 3.3919654
-0.10414106 0.4175927 3.3667426
-0.076699562 0.40414771 3.365
1.3587842 0.41419077 3.3989999
1.3707035 0.41419077 3.3989999
1.4273194 0.41121101 3.3989999
1.4626638 0.41712832 3.3854005
1.498379 0.41799814 3.3690007
1.5369412 0.42063293 3.3649998
1.5774648 0.4098925 3.365001
-0.16653714 0.45822552 3.3989992
-0.14041349 0.45859689 3.3990004
-0.10152394 0.46230668 3.3735003
-0.076699562 0.45724741 3.365
0.74166787 0.44324267 3.3706665
0.78070498 0.44498199 3.3989999
0.87467003 0.45282242 3.365
0.90277612 0.4474448 3.3876667
0.93373263 0.45475647 3.3683999
0.96843171 0.46484724 3.3989999
1.188936 0.47378659 3.3989999
1.2097948 0.47676641 3.3989999
1.3021681 0.45590785 3.3989999
1.3707035 0.46186742 3.3989999
1.421535 0.47115734 3.3989992
1.4663191 0.46023551 3.3960004
1.498984 0.4591141 3.3776796
1.5324179 0.45803404 3.365
1.5941709 0.4755373 3.3650002
1.6047909 0.47789729 3.365
-0.16329247 0.49226132 3.3989999
-0.13890402 0.50014621 3.3990006
-0.10106074 0.50096387 3.3758185
1.1978755 0.48272595 3.3989999
1.2097948 0.48272595 3.3989999
1.3736833 0.4916653 3.3989999
1.4199394 0.50233132 3.396107
1.4604563 0.50142896 3.3868589
1.5004643 0.50065845 3.3774686
1.5367678 0.50167066 3.3649998
1.5828561 0.50029999 3.365756
1.6206533 0.5058217 3.3692496
1.6531706 0.51447707 3.3650002
1.6873903 0.51919711 3.3650002
-0.16090864 0.53636217 3.3989999
-0.13962443 0.53891629 3.3990006
-0.10784766 0.53678805 3.3872309
1.4284303 0.52663761 3.3876667
1.4588292 0.53288919 3.3770645
1.493636 0.53406477 3.3685794
1.5323056 0.53268278 3.3650002
1.5937284 0.53025955 3.365
1.6168393 0.53325504 3.3668895
1.6628017 0.53240663 3.3684006
1.6953031 0.53800648 3.366308
-0.13498448 0.57003385 3.3989995
-0.1012269 0.57852256 3.3958383
1.5455966 0.57121873 3.3680911
1.568737 0.57033074 3.3763332
-0.20560549 0.63171548 3.3989999
-0.17145252 0.6271311 3.3989995
-0.13817878 0.62315142 3.3967338
-0.10623267 0.61549294 3.3820002
1.6637907 0.6303131 3.3650002
-0.20560549 0.64363456 3.3989999
-0.16806014 0.66330117 3.3989995
-0.13436143 0.64959425 3.3989997
-0.10891386 0.6606347 3.382
1.6607398 0.66796583 3.3683999
-0.281133 0.70877212 3.3876667
-0.17655253 0.69900906 3.3989999
-0.15494907 0.68833148 3.3989999
-0.098527193 0.70187104 3.3738697
1.6323242 0.71291256 3.3650002
1.6562049 0.69656271 3.3700366
-0.28903961 0.75686663 3.3989999
-0.20461224 0.74991387 3.3989999
-0.1806211 0.73990482 3.3989995
-0.09515655 0.74050122 3.3922002
1.6282004 0.74341732 3.3806927
1.6420521 0.73572069 3.3785999
1.6991905 0.75224578 3.3650007
-0.28903961 0.76878583 3.3989999
-0.20461224 0.76481271 3.3989999
-0.18127054 0.77126902 3.3989997
-0.13707034 0.79858369 3.3989999
1.5133414 0.7964955 3.365
1.5491627 0.78680289 3.3650007
1.5834036 0.78125399 3.3650005
1.6219727 0.7745319 3.376334
1.6595181 0.78632301 3.365
1.6984141 0.77895099 3.3649995
1.7307973 0.77373856 3.3650007
-0.16537833 0.81596583 3.3989997
-0.1376121 0.81944227 3.3989997
-0.10122939 0.82753509 3.3956001
-0.077087045 0.83606815 3.382
1.3274925 0.8377952 3.3650002
1.4730251 0.8122288 3.3650002
1.5047227 0.81919158 3.3842976
1.5397539 0.82133049 3.3650002
1.582394 0.81921071 3.3905001
1.6157306 0.82179105 3.3873432
1.6654085 0.81225026 3.367429
1.6909304 0.8088854 3.3650002
-0.13826224 0.84268457 3.3989999
-0.088265248 0.85549664 3.3854001
-0.0768933 0.85985368 3.3734999
1.3130811 0.85110354 3.3844287
1.3409134 0.86091232 3.3869348
1.3717229 0.85950989 3.3905001
1.4310439 0.87084353 3.3989999
1.4442048 0.86910534 3.3989999
1.4973444 0.84030074 3.3989999
1.5399854 0.85746402 3.394613
1.5828416 0.85992825 3.3978276
1.6161866 0.8605262 3.3803012
1.6518363 0.86154586 3.3898463
1.7121702 0.84605515 3.3650002
-0.088688962 0.90173942 3.3849998
-0.076180324 0.90490115 3.3795714
1.3502706 0.88457209 3.3989999
1.3756697 0.89393699 3.3989992
1.4281707 0.88968027 3.3989995
1.4468534 0.89327484 3.3989999
1.5144782 0.91256064 3.3989999
1.5373034 0.90071672 3.3931718
1.5874414 0.9051615 3.3811052
1.6188875 0.89443094 3.3726764
1.6556108 0.89865988 3.3685789
1.6871681 0.89754057 3.3734999
-0.8902086 0.94727314 3.3730004
-0.089724772 0.94360024 3.3989992
-0.073806964 0.93713772 3.378077
1.3677237 0.94757318 3.3989999
1.5071777 0.93088627 3.3989999
1.5391973 0.93423617 3.3914444
1.5840956 0.93408275 3.3859231
1.6248317 0.93933535 3.3665462
1.6582286 0.93828684 3.3656945
1.6979837 0.93849725 3.3650005
1.7253187 0.93050909 3.3650002
-0.89834571 0.96655303 3.382
-0.083434112 0.9654519 3.3989999
-0.074494749 0.96843171 3.3989999
1.2986917 0.98780036 3.3989997
1.3438852 0.98631048 3.3989999
1.6254641 0.97809958 3.3959084
1.6633484 0.97774678 3.378762
1.6903062 0.97773498 3.366308
-0.13598678 1.0288403 3.3989997
-0.09875983 1.0253456 3.3968067
-0.077164546 1.0197424 3.3854001
1.5196929 1.033987 3.3989999
1.5452971 1.0232821 3.3990002
1.5718061 1.021036 3.3966553
1.6056681 1.0374427 3.3876667
1.6662494 1.0162674 3.3752
1.6899753 1.0185006 3.3710713
1.5115252 1.0704775 3.3763332
1.5256523 1.0697446 3.3989999
1.5959409 1.0442941 3.365
1.6180848 1.0618079 3.3933337
1.6448439 1.078684 3.3989999
1.6919053 1.0561625 3.3740673
0.7747454 1.1144414 3.3989999
1.0310252 1.1119263 3.3763332
1.0657923 1.1078373 3.3834171
1.0958241 1.096254 3.3771427
1.1340674 1.1026515 3.3802998
1.1836207 1.0956309 3.383889
1.2208656 1.0928867 3.3802993
1.2619822 1.1045406 3.381413
1.2994508 1.1064943 3.3799601
1.3358525 1.0998505 3.3768609
1.3742137 1.1076664 3.3905001
1.4451981 1.1114616 3.3989999
1.5143954 1.0959004 3.3989999
1.5374216 1.1014607 3.3922002
1.5950792 1.108808 3.382
1.6190577 1.0996566 3.3881826
1.6448439 1.0935829 3.3989999
-0.082599536 1.1563934 3.365
-0.067849614 1.1563934 3.365
0.39333227 1.1527531 3.3989999
0.42012352 1.1522353 3.3826795
0.45579335 1.1495316 3.3856962
0.54828131 1.1561584 3.3989999
0.56020051 1.1561584 3.3989999
0.63568854 1.1541719 3.3989999
0.65933269 1.153744 3.3904998
0.70563602 1.145205 3.3954208
0.74174249 1.1426661 3.3943646
0.77723396 1.1303893 3.3898454
0.80901295 1.1427494 3.3989999
0.94729382 1.141119 3.383889
0.98244941 1.1368334 3.3813193
1.0113993 1.1291242 3.3871739
1.2625928 1.1209936 3.3650002
1.3033799 1.1261722 3.3687782
1.3311154 1.1281062 3.3725555
1.3893952 1.1326205 3.3754611
1.4366419 1.1327934 3.3650002
1.4578201 1.1348659 3.384217
1.4980679 1.1339027 3.3717999
1.5405618 1.1278771 3.3828948
1.5841328 1.1282642 3.3921998
1.6102784 1.1239767 3.3989999
-0.45287311 1.1727297 3.3804545
-0.42104611 1.1778461 3.3758183
-0.39729482 1.1770451 3.382
-0.24972375 1.18652 3.3752
-0.21906258 1.1827658 3.3766873
-0.18076633 1.1833947 3.375303
-0.14230007 1.1908014 3.3720341
-0.099256597 1.1852274 3.3750463
-0.061149616 1.1794097 3.37095
-0.02010189 1.1890174 3.3812599
0.014396621 1.1912867 3.3795714
0.062894821 1.1957211 3.3941426
0.10101727 1.1945943 3.3890824
0.14002261 1.1923511 3.3805833
0.1791542 1.1928118 3.3882632
0.22031339 1.182603 3.38132
0.26139435 1.1839991 3.3759677
0.29946691 1.177641 3.3768599
0.34412971 1.176954 3.3747156
0.38250998 1.1724759 3.3869998
0.41826409 1.1721095 3.3695335
0.46817872 1.1730814 3.3763337
0.50153083 1.183774 3.3907578
0.53735548 1.1713773 3.3847423
0.57547975 1.1648155 3.389555
0.62130177 1.1685741 3.3885391
0.65213621 1.1649575 3.3854001
0.70696598 1.1640011 3.3885386
0.73577857 1.1662323 3.3900521
1.4250017 1.1654289 3.3989999
1.4451981 1.1621181 3.3989999
-0.25030234 1.2038351 3.3989999
-0.18486564 1.2075266 3.3650002
-0.14021099 1.2081051 3.3650007
-0.11603268 1.2055598 3.3650002
0.026683979 1.2037141 3.382
0.058162447 1.2055234 3.3854005
0.10063723 1.2056403 3.3763335
0.19022964 1.2037746 3.3905001
0.7843473 -1.3658941 3.4329998
0.81700516 -1.367561 3.4329998
0.86194849 -1.3693665 3.4330003
0.88482141 -1.3783953 3.4330001
0.94038332 -1.3689034 3.4329994
0.98185074 -1.3702093 3.4329991
1.0684068 -1.3753858 3.4330001
0.78632545 -1.3477521 3.4330001
0.8109495 -1.3387235 3.4329994
0.93760514 -1.3399651 3.4329991
0.97841012 -1.3418921 3.4329991
1.0202533 -1.3242226 3.4330001
-1.04433 -1.2820882 3.4330001
0.79152393 -1.291117 3.4330003
0.81781828 -1.2995119 3.4329991
0.84268707 -1.2971362 3.4330001
0.9394142 -1.2990259 3.4329989
0.97538298 -1.2919376 3.4329994
1.023263 -1.3096762 3.4330001
1.059378 -1.2941265 3.4330001
-1.0425242 -1.2688459 3.4330003
0.7836237 -1.265159 3.4329996
0.81692487 -1.2630675 3.4329991
0.86877024 -1.2469763 3.4330003
0.88963681 -1.2495846 3.4330003
0.9368698 -1.2638537 3.4329991
0.98225707 -1.2651592 3.4329991
1.015094 -1.2519922 3.4329998
-1.0473396 -1.2038386 3.4330001
0.79453349 -1.2188866 3.4330003
0.81815881 -1.2193379 3.4329991
0.86047715 -1.2221642 3.4329991
0.88865185 -1.2191604 3.4330001
0.93200415 -1.2244203 3.4329991
1.0262725 -1.2188866 3.4330001
1.099506 -1.2249058 3.4330003
0.82279027 -1.1832731 3.4329991
0.86061907 -1.1800127 3.4329991
0.88869071 -1.1763225 3.4329998
0.93598461 -1.1662186 3.4330003
0.99316692 -1.1787587 3.4330003
1.0208106 -1.1848897 3.4329991
1.0413206 -1.1918004 3.4330001
-1.0413206 -1.149666 3.4330001
0.75841832 -1.1255891 3.4330001
0.77389634 -1.1273091 3.4330006
0.82849902 -1.1479461 3.4329998
0.85984164 -1.140336 3.4329991
0.89842033 -1.1380732 3.4329991
0.93919486 -1.1388313 3.4329994
0.9815585 -1.135908 3.4329994
1.0077851 -1.1393474 3.4330006
0.75841832 -1.1135509 3.4330001
0.77747911 -1.1115444 3.4329996
0.86834788 -1.1081651 3.4329994
0.89911693 -1.1007601 3.4329991
0.94166946 -1.1035188 3.4329991
0.98036003 -1.1021528 3.4329989
1.0082148 -1.1067792 3.4330003
-1.0413204 -1.04433 3.4330001
0.82763904 -1.0473397 3.4330001
0.8605774 -1.056536 3.4329991
0.89864939 -1.0613302 3.4329991
0.94162762 -1.0567446 3.4329996
0.97717309 -1.0592061 3.4329991
1.0136322 -1.0473397 3.4330003
-1.0413204 -1.0353013 3.4330001
0.82964551 -1.0332949 3.4330003
0.85773504 -1.0353013 3.4330001
0.90254456 -1.0205877 3.4329996
0.94686556 -1.0190958 3.4329998
0.97784543 -1.0227157 3.4329991
1.0132309 -1.0195843 3.4329996
0.87579262 -0.97510934 3.4330003
0.90270191 -0.9800663 3.4329991
