# .PCD v0.7 - Point Cloud Data file format
VERSION 0.7
FIELDS x y z
SIZE 4 4 4
TYPE F F F
COUNT 1 1 1
WIDTH 1537
HEIGHT 1
VIEWPOINT 0 0 0 1 0 0 0
POINTS 1537
DATA ascii
-1.0710534 0.82651484 2.5780497
-1.0702362 0.85367459 2.5755455
-1.0675445 0.88696045 2.572423
-1.0688242 0.91695064 2.5773475
-1.0731233 0.94205892 2.5722942
-1.0974463 0.98074448 2.5599997
-1.0705924 0.97624993 2.5730283
-1.0850283 1.0033368 2.5599999
-1.0712689 1.0043899 2.5725124
-1.0817364 1.0233856 2.5599999
-1.0690588 1.0245949 2.5760772
-1.3802135 -0.69466192 2.598
-1.3756583 -0.69466192 2.598
-1.3847687 -0.68555158 2.598
-1.3619928 -0.68555158 2.598
-1.3870462 -0.63999999 2.598
-1.3853381 -0.62348747 2.5979998
-1.3851827 -0.54910386 2.5979998
-1.3844839 -0.52754444 2.5979998
-1.3733807 -0.52384341 2.5979998
-1.3870463 -0.4623487 2.5979998
-1.0625945 -0.45303133 2.5979998
-1.0476868 -0.45096084 2.598
-1.3870462 -0.44640568 2.598
-1.0598339 -0.44564649 2.598
-1.040854 -0.43274021 2.5979998
-1.3854194 -0.39760038 2.598
-1.3756583 -0.39174375 2.598
-1.0353611 -0.40540925 2.5979998
-1.3856798 -0.37716722 2.598
-1.3756584 -0.38263345 2.598
-1.0392272 -0.37449926 2.598
-1.3870461 -0.34960854 2.5979998
-1.0522419 -0.34619218 2.598
-1.043457 -0.34846979 2.598
-1.3844839 -0.31402141 2.5979998
-1.3756583 -0.31202847 2.598
-1.0415373 -0.3149893 2.5979998
-1.3824911 -0.29608539 2.598
-1.0378172 -0.28393829 2.5979998
-1.0410612 -0.25881591 2.5979998
-1.0542666 -0.22219057 2.5979998
-1.0454092 -0.22502492 2.5979998
-1.3824911 -0.19814944 2.598
-1.3756583 -0.19359429 2.598
-1.0533807 -0.206121 2.598
-1.0420598 -0.19747958 2.5979998
-1.3824911 -0.16398576 2.598
-1.0408539 -0.16232935 2.5979998
-1.0391458 -0.13551602 2.5979998
-1.0374377 -0.10704627 2.5979998
-1.3824911 -0.077437729 2.598
-1.0414752 -0.074538983 2.5979998
-1.3820356 -0.035530247 2.598
-1.3745193 -0.03530249 2.598
-1.0522419 -0.05921708 2.598
-1.0434821 -0.046252396 2.598
-1.3824911 -0.01594306 2.5979998
-1.3722419 -0.019359432 2.5979998
-1.0545195 -0.0045551602 2.598
-1.0382917 -0.013950178 2.5979998
-1.3802135 0 2.598
-1.3756583 0 2.598
-1.0545195 0.0091103204 2.598
-1.0427176 0.013044324 2.5979998
-1.3824911 0.043274019 2.598
-1.3733807 0.052384339 2.5979998
-1.0442035 0.043943893 2.5979998
-1.3824911 0.081992887 2.598
-1.37395 0.071174368 2.5979998
-1.0433996 0.07583002 2.5979998
-1.3824911 0.10476869 2.5979998
-1.3756583 0.10704626 2.598
-1.054064 0.10522421 2.5979998
-1.0431315 0.10476869 2.5979998
-1.3824911 0.12982206 2.5979998
-1.054064 0.12663345 2.598
-1.0437009 0.13323842 2.5979998
-1.0522419 0.17765124 2.598
-1.044788 0.16522808 2.5979998
-1.0522419 0.19131671 2.598
-1.0457888 0.19397388 2.5979998
-1.0567971 0.22866908 2.598
-1.0592498 0.25403777 2.598
-1.0542665 0.28140765 2.5979998
-1.0476868 0.28469747 2.598
-1.0565124 0.31629896 2.5979998
-1.0476868 0.31658363 2.598
-1.0580395 0.34412163 2.5979998
-1.0565125 0.37779361 2.5979998
-1.0476868 0.38035583 2.598
-1.0572528 0.40449819 2.5979998
-1.0454092 0.40313163 2.598
-1.0545197 0.43501779 2.5979998
-1.062081 0.46571955 2.5979998
1.0066904 0.4760142 2.598
1.0426762 0.47145912 2.5979998
1.0659074 0.47191459 2.598
1.1888967 0.47829181 2.598
-1.0537603 0.49499401 2.5979998
-1.0476868 0.49651241 2.598
0.28014234 0.50562274 2.598
0.32569394 0.50562274 2.598
0.34011862 0.50562274 2.598
0.43957293 0.50562274 2.598
0.45779359 0.50562274 2.598
0.49423486 0.5056228 2.598
0.52555156 0.5050534 2.5979998
0.55288255 0.50049824 2.5979998
0.58442706 0.50015658 2.5979998
0.61767966 0.50425625 2.5979998
0.64546615 0.50380075 2.5979998
0.67451406 0.49651244 2.598
0.7060498 0.49976614 2.598
0.73869509 0.50410438 2.598
0.76640564 0.50163698 2.5979998
0.79816526 0.50157374 2.5979998
0.82068813 0.49879009 2.5979998
0.8586477 0.49499404 2.598
0.88142347 0.49537361 2.5979998
0.91811776 0.49752468 2.5979998
0.9443565 0.49243677 2.5979998
0.97480422 0.48341635 2.5979998
1.001123 0.48790827 2.5979998
1.0362989 0.48284695 2.598
1.0938891 0.48805287 2.598
1.111459 0.48284695 2.598
1.1547331 0.48512456 2.598
1.1816086 0.48375797 2.598
1.2071174 0.48740214 2.598
-1.0636297 0.52111024 2.5979998
0.23148493 0.52715623 2.5979998
0.25451955 0.51188606 2.5979998
0.2846975 0.51017791 2.598
0.3074733 0.51017791 2.598
0.35758007 0.51701063 2.598
0.3758007 0.51776981 2.598
0.40692762 0.51523918 2.5979998
0.4304626 0.51169628 2.598
0.46462634 0.51017791 2.598
0.49423489 0.51017791 2.598
0.64136654 0.51108891 2.598
0.72654802 0.51017791 2.598
-1.0688061 0.55324489 2.5979998
0.23231316 0.54434156 2.598
-1.0650791 0.58885795 2.5979998
-1.0639552 0.61494648 2.5979998
-1.0590746 0.64637721 2.5979998
-1.0454092 0.65594304 2.598
-1.0596651 0.67315137 2.5979998
-1.0454092 0.66049814 2.598
-1.0585054 0.7032029 2.5979998
-1.0678595 0.73598373 2.598
-1.0717639 0.76656842 2.598
-1.0670958 0.79715306 2.5979998
-1.0654013 0.82330287 2.5979998
-1.0648952 0.85333329 2.5979998
-1.0659075 0.88262922 2.5979998
-1.0615799 0.91490382 2.5979998
-1.0712664 0.94747329 2.5979998
-1.0639553 0.97415358 2.598
-1.0476868 0.97935939 2.598
-1.0629599 1.0061542 2.5979998
-1.057498 1.0266631 2.598
-1.0476868 1.0294662 2.598
-1.4112492 -0.84906298 2.6389999
-1.4066221 -0.84906304 2.6389999
-1.4112492 -0.82592773 2.6389999
-1.4048868 -0.8230359 2.6389999
-1.4112492 -0.80973309 2.6389999
-1.4019951 -0.80973309 2.6389999
-1.4112492 -0.73107332 2.6389999
-1.3986019 -0.72675478 2.6390002
-1.3788599 -0.72181922 2.6389999
-1.4112492 -0.71487868 2.6389999
-1.3888681 -0.70653039 2.6243
-1.3755786 -0.70362318 2.6315
-1.4112492 -0.66860819 2.6389999
-1.3943604 -0.67491406 2.632
-1.3715296 -0.68346202 2.625
-1.3912505 -0.64544809 2.625
-1.3918774 -0.61351973 2.626842
-1.3962016 -0.58472991 2.6281376
-1.3873734 -0.55689436 2.625
-1.3770188 -0.55065644 2.6355
-1.4112492 -0.51591569 2.6389999
-1.3933291 -0.51461887 2.6285
-1.3757982 -0.52486759 2.6289566
-1.4112492 -0.50434804 2.6389999
-1.3941901 -0.49487224 2.6360698
-1.3765463 -0.49740744 2.6389999
-1.3905227 -0.46469364 2.6342578
-1.0832934 -0.45902264 2.618
-1.0526531 -0.45345056 2.6389999
-1.4112492 -0.43262887 2.6389999
-1.3941671 -0.4357512 2.6368999
-1.3788599 -0.43571353 2.6389999
-1.0511619 -0.44984218 2.618
-1.0370013 -0.43267131 2.631125
-1.4112492 -0.41412064 2.6389999
-1.3898866 -0.40708244 2.6349618
-1.376877 -0.40850213 2.6389999
-1.0339744 -0.4044421 2.6316957
-1.3867893 -0.37424511 2.6301155
-1.3771183 -0.36881229 2.6366665
-1.0309652 -0.37389201 2.6233997
-1.0184902 -0.36868173 2.6285
-1.3901535 -0.34497505 2.6287687
-1.3770143 -0.34592608 2.6370909
-1.0503395 -0.35396904 2.6389999
-1.034732 -0.34608349 2.6303258
-1.0184903 -0.35716009 2.6285
-1.3864411 -0.31490305 2.62675
-1.3769661 -0.31343943 2.63375
-1.0307902 -0.31409121 2.6226659
-1.0190303 -0.31672567 2.618
-1.3919904 -0.28463173 2.6272786
-1.3788599 -0.28919041 2.6389999
-1.0342829 -0.28688008 2.6265559
-1.392027 -0.25486067 2.6301327
-1.0511619 -0.24787223 2.618
-1.0405742 -0.25273642 2.6277502
-1.3898424 -0.22503619 2.62745
-1.3788599 -0.21747118 2.6389999
-1.053457 -0.22951132 2.618
-1.0382754 -0.22529374 2.6238322
-1.3883662 -0.19537376 2.6356399
-1.3752609 -0.19947714 2.6389999
-1.0378218 -0.19491193 2.6269999
-1.3924602 -0.1640857 2.631
-1.0397869 -0.1651917 2.63165
-1.396368 -0.13280873 2.6389999
-1.0397272 -0.13361487 2.6278002
-1.3919579 -0.10389069 2.6331666
-1.3788599 -0.10179502 2.6389999
-1.0394304 -0.10483356 2.6240001
-1.3904145 -0.07309179 2.6331666
-1.3756565 -0.069761612 2.6389999
-1.0425712 -0.073115751 2.6300001
-1.3888249 -0.047703777 2.6289566
-1.3767551 -0.044294458 2.6306
-1.0429952 -0.046459902 2.6271305
-1.3816583 -0.0091804536 2.618
-1.3721619 -0.013612727 2.6262174
-1.0386823 -0.014755002 2.6306002
-1.3940932 0.014508446 2.6355
-1.3743978 0.00396604 2.6330001
-1.035252 0.013950819 2.6227412
-1.3886901 0.035526041 2.6270001
-1.3742446 0.048878841 2.6259999
-1.0503395 0.050897509 2.6389999
-1.0417621 0.044530209 2.627625
-1.3828057 0.083771631 2.618
-1.3728838 0.075434871 2.6266897
-1.0503395 0.064778648 2.6389999
-1.0387868 0.076668553 2.6280799
-1.3872079 0.10577551 2.6269996
-1.3764515 0.1023936 2.6357694
-1.038075 0.10320251 2.6284997
-1.3858913 0.13669293 2.6270001
-1.3750184 0.13091187 2.6367896
-1.0409681 0.13527338 2.6293077
-1.3898803 0.16368115 2.6254115
-1.3788599 0.15731959 2.6389999
-1.0411813 0.16449104 2.6265309
-1.3959128 0.19657108 2.6343334
-1.0517019 0.2066461 2.63375
-1.043692 0.18995436 2.6290526
-1.3944097 0.22539477 2.6367297
-1.0558339 0.22515634 2.6296666
-1.3920488 0.25547096 2.6298125
-1.055871 0.25267562 2.6279473
-1.0465716 0.26393801 2.618
-1.3975686 0.28465953 2.6374445
-1.0537066 0.2845957 2.6236002
-1.0465716 0.2731185 2.618
-1.3950552 0.31463918 2.6389999
-1.3788599 0.3192662 2.6389999
-1.0540527 0.3145766 2.6327
-1.3999832 0.34521788 2.6389999
-1.0566052 0.34293848 2.6247199
-1.395529 0.37268251 2.6335802
-1.0536158 0.37261769 2.6273334
-1.0444565 0.3853336 2.632
-1.3995068 0.40813741 2.6370909
-1.0533983 0.40186441 2.6261666
-1.044764 0.40544254 2.6300001
-1.394814 0.43600008 2.6341999
-1.0531627 0.43590415 2.6280799
-1.0457125 0.42106122 2.6389999
-1.3932397 0.46556479 2.6299996
-1.059033 0.46581799 2.6261666
0.97709912 0.477029 2.6273334
1.00555 0.47603765 2.6292002
1.0341905 0.47428524 2.632
1.0655291 0.46970534 2.6264
1.0855886 0.47279334 2.618
1.2215403 0.47658581 2.6389999
1.2331078 0.47427225 2.6389999
-1.3948497 0.49357301 2.630923
-1.0576997 0.49459079 2.6325386
0.25475758 0.50951523 2.618
0.2849946 0.5092206 2.6294546
0.31502667 0.50792843 2.6285
0.34187123 0.50613272 2.6243
0.43661815 0.50678575 2.6276925
0.4652575 0.50671685 2.6273334
0.49388301 0.50617582 2.6285
0.5297907 0.50424874 2.6275456
0.55420136 0.49739528 2.62675
0.58761036 0.49849781 2.6285
0.6147387 0.5010379 2.62535
0.6456359 0.50049901 2.6244617
0.6751259 0.4954471 2.6276925
0.70462096 0.49532717 2.6313636
0.73423791 0.50249797 2.626842
0.76475292 0.49721584 2.6229413
0.79556513 0.49561858 2.6273329
0.82336521 0.49202511 2.6264
0.85772842 0.49211076 2.6264002
0.88418484 0.48864254 2.6271305
0.91624373 0.49414891 2.6270001
0.94323796 0.48667344 2.625875
0.97366124 0.48172018 2.625
0.99837422 0.4819738 2.618
1.0442765 0.4819738 2.618
1.0511619 0.4819738 2.618
1.1015548 0.48637843 2.62325
1.1244891 0.48389897 2.6285
1.1539305 0.48342478 2.6273334
1.1814846 0.48155874 2.6294546
1.213809 0.48303497 2.6276925
1.2323368 0.48429751 2.6389999
-1.4017228 0.52448928 2.6389999
-1.062827 0.52719146 2.6273334
0.22355099 0.52406472 2.6327002
0.24392024 0.51393765 2.625
0.35803765 0.51410532 2.618
0.37447354 0.51667047 2.6293077
0.40449592 0.51703501 2.6306
0.42106122 0.5136022 2.6389999
-1.4043086 0.56912673 2.6389999
-1.0615505 0.55663967 2.6287138
-1.0457125 0.56681317 2.6389999
0.22157747 0.54705316 2.6330001
-1.4022671 0.58600187 2.6389999
-1.0616362 0.58309054 2.6244609
-1.0457125 0.57606733 2.6389999
-1.4038458 0.61632264 2.6390002
-1.0597258 0.61493218 2.630444
-1.403317 0.64415097 2.6389999
-1.0580577 0.64350677 2.6270001
-1.0465716 0.64492679 2.618
-1.4043086 0.67554885 2.6389999
-1.0550125 0.67719781 2.6312633
-1.0465716 0.66328776 2.618
-1.4043086 0.69405693 2.6389999
-1.0575794 0.70522088 2.6308334
-1.0666367 0.73590046 2.6281111
-1.0713029 0.76582003 2.6317587
-1.0674047 0.79321527 2.6313
-1.3996816 0.82130075 2.6389999
-1.0593858 0.82485986 2.6304445
-1.0598282 0.85563606 2.6277502
-1.0627781 0.88529414 2.6271
-1.0576391 0.9149968 2.624125
-1.0616107 0.94475448 2.6322258
-1.0457125 0.94623101 2.6389999
-1.0622786 0.97400421 2.6285002
-1.0566602 1.0050541 2.6280799
-1.0457125 0.9925015 2.6389999
-1.0560037 1.0334439 2.632
-1.0526531 1.0503395 2.6389999
-1.4172825 -0.87414622 2.6590002
-1.3936131 -0.88257384 2.6590002
-1.4143686 -0.85841155 2.6590002
-1.4040133 -0.85531849 2.6590002
-1.4146184 -0.82319605 2.6590002
-1.3986338 -0.82489312 2.6589994
-1.3729923 -0.82286298 2.6589999
-1.4172822 -0.79489028 2.6590002
-1.3977598 -0.79518181 2.6589994
-1.4172823 -0.76458663 2.6590002
-1.3963029 -0.76458663 2.6589987
-1.3756821 -0.76064169 2.6590002
-1.4126202 -0.74360704 2.6589999
-1.3943772 -0.73864102 2.6590004
-1.3748055 -0.73428279 2.6590002
-1.3734037 -0.70644718 2.6590002
-1.3896009 -0.6722185 2.6590002
-1.3782372 -0.6777547 2.6590002
-1.393661 -0.64616889 2.6590004
-1.3636681 -0.65036476 2.6589999
-1.390323 -0.61418283 2.6590004
-1.3706614 -0.60840577 2.6590002
-1.3920293 -0.58587229 2.6590004
-1.3743911 -0.58556145 2.6590002
-1.3893098 -0.56100762 2.6589999
-1.3758143 -0.55430073 2.6590002
-1.3696084 -0.52275825 2.6589994
-1.3473507 -0.51283246 2.6589999
-1.3869786 -0.48252869 2.6589999
-1.368868 -0.49585748 2.658999
-1.3473507 -0.50583923 2.6589999
-1.3867668 -0.46493983 2.6590004
-1.376256 -0.46403572 2.6590004
-1.0489755 -0.45222497 2.6589999
-1.3863958 -0.43532482 2.6590002
-1.3774426 -0.43569565 2.6590004
-1.0326581 -0.43457559 2.6590002
-1.3866457 -0.39960968 2.6590002
-1.3753235 -0.40560377 2.6590002
-1.0306602 -0.40826792 2.6590002
-1.385813 -0.38112774 2.6589999
-1.3743911 -0.37530011 2.6590002
-1.0233338 -0.37763119 2.6590002
-1.3846477 -0.34188831 2.6589999
-1.3743421 -0.34156114 2.6590002
-1.0244994 -0.34237391 2.6590002
-1.0150087 -0.3383362 2.6590002
-1.3846476 -0.30303735 2.6589999
-1.3666984 -0.31422642 2.658999
-1.0256649 -0.31469262 2.6590004
-1.0140096 -0.32634789 2.6589999
-1.3876445 -0.28305689 2.6590002
-1.3669112 -0.28499696 2.6589987
-1.029291 -0.28162616 2.6589999
-1.3869786 -0.25408518 2.6590004
-1.3726885 -0.2560108 2.6590004
-1.0346007 -0.25641626 2.6590004
-1.3862016 -0.22844355 2.6590002
-1.3781208 -0.22797732 2.6590002
-1.0342122 -0.22611248 2.6590004
-1.3866456 -0.18981463 2.6590002
-1.3730938 -0.19398446 2.6590004
-1.0359882 -0.19580874 2.6590002
-1.3914288 -0.16402161 2.6590004
-1.3773954 -0.16990811 2.6590002
-1.0355376 -0.16262549 2.6590002
-1.3893096 -0.1379004 2.6590002
-1.3799856 -0.13209322 2.6589999
-1.0375792 -0.13485593 2.6589999
-1.385813 -0.10606308 2.6590002
-1.3753237 -0.10163406 2.6590004
-1.0398966 -0.10698324 2.6590002
-1.3846476 -0.081586979 2.6589999
-1.3732255 -0.07855662 2.6590002
-1.0419823 -0.074593812 2.6590002
-1.3859795 -0.042625036 2.6590002
-1.3776544 -0.053614303 2.6589999
-1.0396513 -0.041959018 2.6590002
-1.3846476 -0.025641624 2.6589999
-1.3737693 -0.012950314 2.6590002
-1.0373201 -0.017094413 2.6590002
-1.3885326 0.019036964 2.6590004
-1.3771167 0.012910469 2.6590002
-1.0363878 0.014918764 2.6590002
-1.3869786 0.032634791 2.6589999
-1.3766555 0.043624062 2.6590002
-1.0393598 0.046038367 2.6590002
-1.3767221 0.073661387 2.6590002
-1.0375532 0.072962068 2.6590002
-1.3846476 0.10256649 2.6589999
-1.3781208 0.10676239 2.6590002
-1.0338236 0.10751998 2.6590002
-1.3846476 0.14685656 2.6589999
-1.3740803 0.13706616 2.6590004
-1.0346562 0.13403575 2.6589999
-1.3896428 0.16983412 2.6590002
-1.3755978 0.1648194 2.6590002
-1.0355718 0.16433948 2.6590002
-1.3921475 0.19459252 2.6590004
-1.3799855 0.1818224 2.6589999
-1.0536376 0.20979509 2.6589999
-1.0414755 0.19722767 2.6590004
-1.3869786 0.22611251 2.6590004
-1.3736919 0.22727799 2.6590002
-1.0559688 0.22611248 2.6590004
-1.0483096 0.22444744 2.6590002
-1.3902911 0.25249022 2.6590002
-1.3768775 0.2509771 2.6590004
-1.0559688 0.25408515 2.6590004
-1.0489755 0.25175411 2.6590002
-1.3926005 0.28384042 2.6590002
-1.0559688 0.28438893 2.6590002
-1.0431478 0.29720971 2.6589999
-1.385813 0.3123616 2.6590002
-1.3779135 0.31805971 2.6590002
-1.0551916 0.31236157 2.6590002
-1.0439547 0.31200296 2.6590002
-1.39182 0.34625155 2.6590002
-1.3786534 0.33966824 2.6590002
-1.0566347 0.34832641 2.6590002
-1.0466444 0.34499639 2.6590002
-1.390242 0.37623248 2.6590002
-1.3781208 0.37716496 2.6590002
-1.0559686 0.37296906 2.6590002
-1.0476435 0.37363508 2.6590002
-1.3939718 0.40404978 2.6589994
-1.3786536 0.39894369 2.6590002
-1.0454788 0.40910038 2.6590004
-1.3898923 0.43707308 2.6590002
-1.0544146 0.43668458 2.6590002
-1.0445875 0.43631896 2.6590002
-1.390242 0.46411332 2.6590002
-1.3799855 0.45921814 2.6589999
-1.0580083 0.46533713 2.6590002
-1.0472271 0.46096644 2.6590002
0.98370588 0.47553551 2.6589999
1.0054623 0.47398144 2.6590002
1.0349892 0.47220546 2.6590002
1.0641274 0.47203892 2.6589999
1.1259003 0.47553548 2.6590002
1.1818457 0.47553551 2.6589999
1.2238047 0.46854234 2.6590002
1.2349938 0.46994096 2.6590002
-1.3953704 0.49138674 2.6590002
-1.057809 0.49344787 2.6590002
-1.0462558 0.4976806 2.6590004
0.22378144 0.50817031 2.6589999
0.25408518 0.50817037 2.6590002
0.27273363 0.50817031 2.6589999
0.31702369 0.50817031 2.6589999
0.35198954 0.50817031 2.6589999
0.37530011 0.50817031 2.6589999
0.4068307 0.50399888 2.6590002
0.43404275 0.505373 2.6590002
0.46388027 0.50583923 2.6590002
0.49262995 0.50661629 2.6590002
0.52448773 0.50661635 2.6590002
0.55479145 0.4975141 2.6590002
0.58509517 0.49884611 2.6590002
0.61794192 0.49715078 2.6590004
0.64659923 0.49597713 2.6590002
0.67326397 0.49390978 2.6590002
0.70864117 0.49107593 2.6590002
0.73117471 0.49651504 2.6590004
0.76458663 0.49684811 2.6590002
0.79389125 0.49085397 2.6590002
0.8223967 0.48765704 2.6590002
0.85549778 0.49418399 2.6590002
0.88839155 0.48278773 2.6590002
0.91377419 0.49107593 2.6589999
0.94217068 0.48528364 2.6590004
0.96738845 0.48019764 2.6589999
1.0489755 0.48019764 2.6589999
1.0536376 0.48019764 2.6589999
1.1095829 0.48019764 2.6589999
1.1248407 0.48231673 2.6590004
1.153873 0.48019764 2.6590002
1.1795146 0.48019764 2.6590002
1.2028252 0.48485973 2.6589999
-1.3960909 0.52681887 2.6590004
-1.3788199 0.53264642 2.6589999
-1.0588825 0.52332222 2.6590002
-1.0452458 0.51982564 2.6590002
0.20396744 0.5256533 2.6590002
0.22378142 0.51438648 2.6590002
0.25408515 0.51283246 2.6590002
0.27040255 0.51283246 2.6589999
0.37763116 0.51458073 2.6590002
0.40452796 0.51498431 2.6590002
0.4242523 0.51283246 2.6589999
-1.4151305 0.55586731 2.6590002
-1.3960185 0.55513257 2.6589987
-1.3794028 0.55304313 2.6590002
-1.0586327 0.54813129 2.6590002
-1.0489755 0.56644672 2.6589999
0.20862955 0.54430169 2.6589999
-1.3971421 0.58593428 2.6590002
-1.0567456 0.59364247 2.6590002
-1.0483096 0.58676028 2.6590002
-1.3960185 0.61574006 2.6589987
-1.3799855 0.60840571 2.6589999
-1.056435 0.61446649 2.6590004
-1.04781 0.60490918 2.6589999
-1.3982607 0.64579594 2.6590002
-1.061097 0.64197302 2.6590002
-1.4021306 0.67600632 2.6590004
-1.0551916 0.67859644 2.6590002
-1.4149513 0.71097213 2.6590002
-1.397882 0.70758832 2.6589994
-1.3781207 0.71423572 2.6590002
-1.0559688 0.70631015 2.6590004
-1.0489755 0.71330327 2.6589999
-1.4149513 0.73428285 2.6590004
-1.399744 0.73017561 2.6590002
-1.0596318 0.73394984 2.6590002
-1.0489755 0.73428285 2.6590002
-1.4136562 0.76199651 2.6590002
-1.4011981 0.76948172 2.6590002
-1.0620595 0.76428568 2.6589994
-1.0489755 0.76458657 2.6590002
-1.4126203 0.79489034 2.6590002
-1.3989555 0.79448867 2.6589997
-1.0606308 0.79489028 2.6590004
-1.0489755 0.79022819 2.6589999
-1.4126202 0.8205319 2.6589999
-1.4045676 0.82095581 2.6590004
-1.0579411 0.8241182 2.6590002
-1.0579411 0.85567707 2.6590002
-1.0580083 0.88725829 2.6590002
-1.0585587 0.91532826 2.6590002
-1.0545701 0.93801707 2.6590002
-1.0474215 0.95029402 2.6590002
-1.0612969 0.97255015 2.6589999
-1.0466444 0.97438157 2.6590002
-1.0563016 1.0103467 2.6590002
-1.0472271 1.0006059 2.6590002
-1.0570564 1.0334352 2.6590004
-1.04781 1.0396513 2.6590002
-1.0536376 1.0559686 2.6589999
-1.0489755 1.0559686 2.6589999
-1.0954388 -1.028479 2.6800001
-1.4249516 -0.94331074 2.6800001
-1.4159453 -0.90376157 2.6800001
-1.4018486 -0.90767735 2.6800001
-1.4231056 -0.89246178 2.6800001
-1.4000212 -0.88131112 2.6800001
-1.4143789 -0.85755533 2.6800001
-1.3945516 -0.85600781 2.6800001
-1.374438 -0.8411091 2.6800001
-1.3908845 -0.82669902 2.6800003
-1.3710041 -0.8299039 2.6800001
-1.3879474 -0.79000819 2.6800001
-1.3706788 -0.78378212 2.6800001
-1.3841714 -0.76525486 2.6800001
-1.3701538 -0.76537335 2.6800001
-1.3673897 -0.73400587 2.6800001
-1.3673898 -0.71423787 2.6800003
-1.3854624 -0.67158598 2.6800001
-1.3695042 -0.67100763 2.6800001
-1.3897656 -0.64755774 2.6800001
-1.3657311 -0.65011114 2.6800001
-1.3861854 -0.62730765 2.6800001
-1.3695825 -0.61023486 2.6800003
-1.3814863 -0.57326984 2.6800001
-1.3673897 -0.58501714 2.6800001
-1.3814863 -0.55447412 2.6800001
-1.3714172 -0.55749488 2.6800001
-1.3597989 -0.52519619 2.6800001
-1.3485938 -0.51453322 2.6800001
-1.3626907 -0.49473059 2.6800001
-1.3485938 -0.50748479 2.6800001
-1.3814863 -0.46284494 2.6800001
-1.3732632 -0.4669565 2.6800001
-1.05726 -0.45814598 2.6800001
-1.0337653 -0.45109758 2.6800001
-1.0196685 -0.45109761 2.6800001
-1.3830527 -0.43778396 2.6800001
-1.375221 -0.43386817 2.6800001
-1.02844 -0.43606105 2.6800003
-1.017789 -0.43653092 2.6800001
-1.375221 -0.39940929 2.6800001
-1.0290666 -0.40661439 2.6800003
-1.0196685 -0.41820508 2.6800001
-1.3814863 -0.36181787 2.6800001
-1.3712342 -0.37548751 2.6800003
-1.0243675 -0.3735652 2.6800001
-1.0196686 -0.3735652 2.6800001
-1.3814863 -0.35007054 2.6800001
-1.3705223 -0.33675691 2.6800001
-1.0243675 -0.35711893 2.6800001
-1.0149696 -0.344468 2.6800001
-1.3593343 -0.31482854 2.6800001
-1.0275002 -0.31247908 2.6800001
-1.0181022 -0.32422638 2.6800001
-1.3579917 -0.28076124 2.6800001
-1.0251507 -0.28428549 2.6800001
-1.0196685 -0.28193602 2.6800001
-1.3671134 -0.25788853 2.6800001
-1.0286392 -0.25630546 2.6800003
-1.3825305 -0.2239825 2.6800001
-1.3750253 -0.22613616 2.6800001
-1.0322969 -0.22466774 2.6800001
-1.3671424 -0.19339821 2.6800001
-1.0321207 -0.19477077 2.6800001
-1.3840494 -0.16019091 2.6800003
-1.3720886 -0.17587437 2.6800001
-1.0302922 -0.16630138 2.6800003
-1.015824 -0.15720068 2.6800003
-1.3855979 -0.13509433 2.6800001
-1.3650401 -0.12687118 2.6800001
-1.029561 -0.13453791 2.6800001
-1.016777 -0.13482325 2.6800001
-1.3824261 -0.11183461 2.6800001
-1.3677654 -0.10732365 2.6799998
-1.0329823 -0.10376813 2.6800001
-1.017319 -0.11512387 2.6800001
-1.3814863 -0.063435599 2.6800001
-1.3724802 -0.074791342 2.6800001
-1.0337656 -0.07518293 2.6800001
-1.0196685 -0.068134531 2.6800001
-1.3866125 -0.040581692 2.6800003
-1.3756127 -0.039940931 2.6800001
-1.0326811 -0.046085689 2.6800001
-1.0181023 -0.043856706 2.6800001
-1.3852456 -0.026314026 2.6800001
-1.3746516 -0.015805501 2.6800003
-1.0315541 -0.018795731 2.6800001
-1.0196685 -0.023494666 2.6800001
-1.3821576 0.018124457 2.6800001
-1.3761162 0.010069143 2.6800001
-1.0362957 0.013012431 2.6800001
-1.3814863 0.046989329 2.6800001
-1.3756126 0.04346513 2.6800001
-1.0357233 0.046597749 2.6800001
-1.3814863 0.075182937 2.6800001
-1.3756126 0.07518293 2.6800001
-1.0307752 0.072833471 2.6800003
-1.3826611 0.10337652 2.6800001
-1.3767874 0.105726 2.6800001
-1.0312023 0.10465805 2.6800003
-1.3814863 0.13157013 2.6800001
-1.3761162 0.1355978 2.6800001
-1.0290664 0.13579917 2.6800001
-1.3814863 0.17855947 2.6800001
-1.3753777 0.16164331 2.6800001
-1.031045 0.16495728 2.6800001
-1.3883542 0.19699374 2.6800001
-1.3767874 0.20440361 2.6800001
-1.0328256 0.19594549 2.6800001
-1.3852456 0.21333157 2.6800001
-1.3736548 0.22607088 2.6800001
-1.052561 0.23024774 2.6800001
-1.0387579 0.22525507 2.6800001
-1.383366 0.26126072 2.6800001
-1.3747736 0.25038606 2.6800001
-1.0532324 0.25777006 2.6800001
-1.0379945 0.25468221 2.6800003
-1.3917654 0.28369808 2.6800001
-1.0546969 0.28321752 2.6800003
-1.0408138 0.28428549 2.6800001
-1.3854022 0.31052119 2.6800001
-1.3767874 0.31717801 2.6800001
-1.0537357 0.31247908 2.6800001
-1.0395323 0.3173916 2.6800003
-1.384619 0.34850425 2.6800001
-1.3767874 0.33597374 2.6800001
-1.0426687 0.34475335 2.6800001
-1.3830526 0.37121573 2.6800001
-1.3767875 0.38061363 2.6800001
-1.052561 0.37826413 2.6800001
-1.0459826 0.37168562 2.6800001
-1.3838358 0.40763247 2.6800001
-1.3767875 0.39471039 2.6800001
-1.0426935 0.40692768 2.6800001
-1.3898001 0.43338627 2.6800001
-1.0373964 0.43315619 2.6800003
-1.3887959 0.46258387 2.6800001
-1.052561 0.46989331 2.6800001
-1.0419884 0.46730891 2.6800001
0.83171123 0.4792912 2.6800001
0.8528564 0.4792912 2.6800001
0.89279735 0.4792912 2.6800001
0.90924358 0.4792912 2.6800001
0.95153403 0.47694173 2.6800001
0.97603565 0.4779487 2.6800001
0.99852335 0.47459227 2.6800001
1.0337653 0.47106808 2.6800001
1.0643084 0.47224283 2.6800001
1.0941285 0.47242358 2.6800001
1.1253946 0.47615859 2.6800001
1.1573834 0.47386935 2.6800001
1.183302 0.47459227 2.6800001
1.2165539 0.4774116 2.6800001
-1.396136 0.49587563 2.6800001
-1.052561 0.49103853 2.6800001
-1.0410748 0.49678168 2.6800001
0.20675306 0.50748479 2.6800001
0.2273109 0.50689745 2.6800001
0.25502396 0.50534886 2.6800003
0.27958652 0.50748479 2.6800001
0.32657588 0.50748479 2.6800001
0.3453716 0.50748485 2.6800001
0.37403509 0.50748485 2.6800001
0.39471039 0.50435221 2.6800001
0.43700081 0.50278586 2.6800001
0.4651944 0.50513536 2.6800001
0.49599853 0.50487435 2.6800001
0.52334368 0.5057227 2.6800001
0.55165476 0.49902675 2.6800001
0.5850172 0.49808699 2.6800001
0.61299717 0.49509674 2.6800003
0.64717132 0.49125209 2.6800003
0.67194748 0.48712274 2.6800001
0.70640635 0.48947224 2.6800001
0.73867232 0.49244818 2.6800001
0.76122719 0.49637827 2.6800003
0.79411972 0.4907029 2.6800001
0.8236559 0.48533276 2.6800001
0.85729432 0.48816696 2.6800001
0.87752575 0.48868906 2.6800001
0.91994667 0.48921114 2.6800001
0.93508768 0.48868909 2.6800001
1.2146742 0.48399016 2.6800001
1.2311205 0.48399013 2.6800001
-1.3920119 0.52195752 2.6799998
-1.3752211 0.52706373 2.6800001
-1.05726 0.53567839 2.6800001
-1.0413358 0.52288693 2.6800001
0.20111434 0.51594287 2.6800001
0.2255488 0.51218379 2.6800001
0.28898439 0.51218373 2.6800001
0.30543065 0.51218379 2.6800001
0.37685445 0.51312351 2.6800001
-1.3838358 0.5554139 2.6800001
-1.3767875 0.54507625 2.6800001
-1.0552464 0.55246031 2.6800001
-1.0478622 0.55447412 2.6800001
0.20440361 0.54742575 2.6800001
-1.3904145 0.58431238 2.6800001
-1.3767874 0.58031827 2.6800001
-1.052561 0.5850172 2.6800001
-1.0478622 0.5850172 2.6800001
-1.3856907 0.61580759 2.6800001
-1.3767874 0.62260866 2.6800001
-1.0543231 0.62202132 2.6800001
-1.0455127 0.61556023 2.6800001
-1.3937037 0.64610332 2.6800001
-1.058435 0.64532018 2.6800001
-1.0478622 0.63670552 2.6800001
-1.3994989 0.67508006 2.6800001
-1.0568329 0.67451054 2.6800003
-1.0478622 0.68604428 2.6800001
-1.3908843 0.70176756 2.6800001
-1.3767874 0.71188837 2.6800001
-1.0545189 0.70288217 2.6800001
-1.0457263 0.70612156 2.6800003
-1.3934686 0.73749751 2.6800001
-1.3767874 0.72363573 2.6800001
-1.052561 0.73538303 2.6800001
-1.0446091 0.73303366 2.6800001
-1.4143789 0.75887775 2.6800001
-1.4020133 0.76295835 2.6800001
-1.052561 0.76357669 2.6800001
-1.0471909 0.76525486 2.6800001
-1.3926463 0.79617548 2.6800001
-1.0531483 0.79588187 2.6800001
-1.0446316 0.79500073 2.6800001
-1.3986039 0.82718015 2.6800001
-1.0577821 0.82231343 2.6800001
-1.4190779 0.85755539 2.6800001
-1.4000778 0.84846407 2.6800003
-1.056537 0.85737461 2.6800001
-1.0466874 0.86577851 2.6800001
-1.4193913 0.88559234 2.6800003
-1.0563202 0.88621891 2.6800003
-1.0469224 0.87964028 2.6800001
-1.4214272 0.90689415 2.6800001
-1.0549105 0.91394258 2.6800001
-1.044103 0.91535217 2.6800003
-1.0544407 0.9402566 2.6800001
-1.0455127 0.93978667 2.6800001
-1.0434569 0.97649711 2.6800001
-1.052561 1.017319 2.6800001
-1.044338 1.003516 2.6800001
-1.0537357 1.0337653 2.6800001
-1.0469223 1.0422233 2.6800001
-1.052561 1.0643084 2.6800001
-1.0455127 1.0596094 2.6800001
-1.1848632 -1.0709021 2.7229998
-1.1606388 -1.0715977 2.7229998
-1.1184946 -1.0620707 2.7229998
-1.0980951 -1.0503519 2.723
-1.4466209 -1.0217059 2.7230003
-1.4346851 -1.0217059 2.723
-1.1219667 -1.0376203 2.7229998
-1.0997384 -1.0362724 2.7065001
-1.44628 -1.0046548 2.723
-1.4245603 -1.003267 2.7229998
-1.4004693 -0.999744 2.723
-1.1529999 -0.99305993 2.723
-1.4500312 -0.98010117 2.723
-1.4241254 -0.97543931 2.7193329
-1.3964907 -0.97634971 2.7229998
-1.3797804 -0.96680117 2.723
-1.1608436 -0.97737294 2.7229998
-1.4480876 -0.94284201 2.7186
-1.4260027 -0.94682831 2.7124772
-1.3957809 -0.94634897 2.7229998
-1.3797804 -0.9405424 2.723
-1.2031302 -0.93099374 2.723
-1.1888074 -0.93099374 2.723
-1.167323 -0.94245207 2.7229998
-1.4444048 -0.91636825 2.701
-1.4266456 -0.91913056 2.701
-1.3964632 -0.91581136 2.7104278
-1.358296 -0.90950918 2.7229998
-1.3463601 -0.90950924 2.723
-1.2031302 -0.92621934 2.723
-1.1856246 -0.92303652 2.723
-1.1673229 -0.92621934 2.723
-1.4159902 -0.89979309 2.701
-1.3918134 -0.88771313 2.7116849
-1.3662807 -0.88917726 2.7229998
-1.3463601 -0.89279908 2.7230003
-1.3896108 -0.86210239 2.713222
-1.3721749 -0.85348731 2.7149327
-1.1913781 -0.84872836 2.723
-1.3911824 -0.81818998 2.7093809
-1.3674066 -0.82536411 2.7136495
-1.1954179 -0.82448953 2.723
-1.3963363 -0.80278748 2.7039337
-1.3648413 -0.7944364 2.7159774
-1.3463601 -0.79015106 2.723
-1.3713521 -0.76605964 2.7165833
-1.3650593 -0.73486662 2.7216249
-1.3344241 -0.73047203 2.7229998
-1.387145 -0.69787782 2.7010002
-1.3660127 -0.7033869 2.7146881
-1.3430197 -0.70872968 2.7175
-1.3590782 -0.67673904 2.7083328
-1.3462597 -0.67768085 2.7142
-1.3882521 -0.6400032 2.701
-1.3643659 -0.64356655 2.7152593
-1.3448273 -0.64048737 2.7142003
-1.3661672 -0.61773568 2.712379
-1.3406309 -0.62352705 2.723
-1.3641653 -0.58248287 2.7154372
-1.3444504 -0.57673866 2.723
-1.0753614 -0.58789176 2.7255001
-1.3851849 -0.55184942 2.7107778
-1.3624398 -0.55632508 2.7125232
-1.3485798 -0.5627104 2.7083335
-1.3577489 -0.52682012 2.712733
-1.3463601 -0.51085293 2.723
-1.3632874 -0.49505991 2.7133741
-1.3463601 -0.5060786 2.723
-1.1171925 -0.482207 2.7230003
-1.3845547 -0.4631097 2.723
-1.3769841 -0.46707609 2.7125788
-1.0933208 -0.47265834 2.723
-1.056073 -0.4617359 2.701
-1.0342244 -0.46251985 2.7083335
-1.0166085 -0.45621085 2.701
-1.3861979 -0.43454534 2.7168887
-1.3781041 -0.44989654 2.701
-1.0229228 -0.42621779 2.701
-1.013203 -0.43393821 2.7080712
-1.3851053 -0.41172078 2.7147501
-1.37536 -0.39812684 2.7165291
-1.0263984 -0.40303507 2.7023752
-1.0152415 -0.40618023 2.711
-1.3854202 -0.36583334 2.7098
-1.3681862 -0.37512544 2.7178833
-1.0223695 -0.37463102 2.711
-1.0166514 -0.37616259 2.7112668
-1.3852079 -0.3528136 2.701
-1.3710779 -0.34900278 2.716085
-1.0223143 -0.34706002 2.7119999
-1.0120524 -0.34700641 2.7093809
-1.3660462 -0.31516185 2.7160001
-1.0258111 -0.31317389 2.7124069
-1.0175593 -0.32809776 2.7119999
-1.3598531 -0.28670579 2.711
-1.0244966 -0.29085565 2.708333
-1.0142586 -0.27854699 2.7142
-1.3828399 -0.2415234 2.701
-1.367533 -0.25355583 2.7128451
-1.0273681 -0.25321034 2.7101667
-1.0121816 -0.26037663 2.7159598
-1.3846831 -0.22309288 2.7072859
-1.3702165 -0.22574893 2.7173824
-1.0281838 -0.22516838 2.7161241
-1.3698938 -0.1951566 2.7148945
-1.0267935 -0.19561732 2.7136922
-1.0169315 -0.18142441 2.723
-1.3849448 -0.15996321 2.701
-1.3699933 -0.16520447 2.7071104
-1.024102 -0.17475022 2.704143
-1.0161062 -0.16565225 2.7098
-1.3856814 -0.14301977 2.701
-1.3638724 -0.13755594 2.7109995
-1.3496898 -0.12786534 2.701
-1.0217059 -0.13368115 2.723
-1.0173311 -0.13683115 2.704143
-1.3604555 -0.10600612 2.7125785
-1.0247828 -0.10137469 2.712579
-1.018187 -0.11365809 2.701
-1.3845547 -0.074002065 2.723
-1.3678955 -0.074220479 2.7172797
-1.3439729 -0.064453408 2.723
-1.0242068 -0.076098181 2.7130001
-1.0151412 -0.069824524 2.7229998
-1.3870989 -0.048014451 2.7083333
-1.3731151 -0.046135657 2.7182858
-1.0226185 -0.049841128 2.7065001
-1.015257 -0.044666093 2.7124782
-1.3839831 -0.025398787 2.7156665
-1.3747625 -0.015763434 2.7154136
-1.0274633 -0.014256549 2.7095559
-1.0175593 -0.026152721 2.7119999
-1.3843282 0.015964419 2.7090001
-1.3749273 0.01707916 2.7154136
-1.0293405 0.014598663 2.7107201
-1.383575 0.049568992 2.7104287
-1.3728051 0.043698136 2.7173426
-1.032614 0.043561108 2.7086523
-1.3839995 0.07315433 2.7098
-1.3692675 0.075294457 2.7169142
-1.0286307 0.076080628 2.7125237
-1.38284 0.10655445 2.701
-1.3704565 0.10560472 2.7163036
-1.0274901 0.10770151 2.704143
-1.3831258 0.13437255 2.7046669
-1.3667941 0.1356246 2.7167735
-1.3455644 0.14004689 2.723
-1.0262742 0.13533542 2.7083335
-1.018187 0.14680836 2.701
-1.3834116 0.17332432 2.7083335
-1.3707168 0.16385701 2.7154872
-1.3439729 0.15277846 2.723
-1.0255783 0.16608405 2.7065001
-1.0179081 0.16552089 2.705889
-1.3884363 0.19374311 2.7067392
-1.3723859 0.19457516 2.717
-1.0257322 0.19416122 2.7072859
-1.018187 0.19416589 2.701
-1.3853196 0.22992729 2.7174997
-1.374494 0.22441155 2.7105651
-1.0294482 0.22483236 2.7149329
-1.3860869 0.26101968 2.7145386
-1.3761029 0.25311172 2.7186
-1.0287379 0.25642583 2.7129996
-1.3887748 0.28474456 2.7069228
-1.3757341 0.28635833 2.7114763
-1.0314876 0.28331444 2.711592
-1.3850332 0.3158617 2.707
-1.3755139 0.31584981 2.7156665
-1.0335618 0.31472376 2.7103076
-1.3845593 0.34753269 2.7087648
-1.3740683 0.34310618 2.7179229
-1.039292 0.34477153 2.714
-1.3848082 0.37214363 2.7088573
-1.3755528 0.37777969 2.7150795
-1.0513371 0.38596389 2.701
-1.0378951 0.37685072 2.7087293
-1.3844526 0.4073084 2.7065001
-1.3709915 0.40453115 2.7184868
-1.0369513 0.40351498 2.7075996
-1.3887275 0.43674904 2.7119994
-1.3705729 0.43037143 2.723
-1.0347334 0.43506575 2.7119999
-1.3891844 0.46669298 2.7116442
-1.3773932 0.4631097 2.7229998
-1.041154 0.46648929 2.7100587
0.7495693 0.47743264 2.723
0.75434363 0.47743264 2.723
0.83178973 0.47801828 2.7083335
0.85252613 0.4750894 2.7048821
0.88416386 0.47813541 2.7054002
0.91873604 0.47712713 2.701
0.94566107 0.47230312 2.7115216
0.97478318 0.47311258 2.7119999
1.0060059 0.47311956 2.7120001
1.0348504 0.4666149 2.7104285
1.0621471 0.46794888 2.7128465
1.0967865 0.46816 2.7088573
1.1221188 0.46796614 2.7152998
1.1601847 0.47326738 2.715235
1.1887333 0.46807548 2.7076001
1.2148689 0.47249749 2.7104287
1.238748 0.47121668 2.7147498
-1.3903798 0.49500847 2.7105126
-1.3753734 0.49799901 2.723
-1.0402833 0.49342346 2.70925
0.22747993 0.50538254 2.7142
0.25607988 0.50298131 2.7162306
0.28409386 0.50458384 2.7165291
0.31627169 0.50518847 2.7207997
0.34600821 0.50336939 2.7163043
0.37578422 0.50505161 2.7174997
0.40331483 0.5020377 2.711154
0.4372102 0.50374222 2.7104287
0.46955538 0.50581014 2.7119999
0.49563339 0.50340736 2.711
0.52672321 0.50266355 2.713222
0.55367053 0.4963429 2.7106252
0.58366668 0.49808562 2.7119999
0.6191358 0.49195266 2.7049999
0.64679527 0.48842511 2.707
0.67520195 0.48432374 2.7120001
0.70345509 0.48834229 2.7135713
0.73704493 0.48549581 2.7100587
0.76609808 0.4906632 2.7139411
0.79397017 0.49020961 2.7127333
0.82012069 0.48531738 2.7107778
0.88641161 0.48381928 2.7083333
0.92820764 0.48778257 2.701
0.94004703 0.4830468 2.701
1.1176378 0.4830468 2.701
-1.3887397 0.52008915 2.7105651
-1.3776598 0.52266788 2.7147498
-1.0399208 0.52545303 2.7106249
0.1931679 0.5252105 2.7119999
0.21007037 0.51085293 2.723
0.29598457 0.51146132 2.701
0.3126463 0.51112944 2.7130001
0.37666389 0.51095432 2.7193332
-1.3858091 0.55947292 2.710263
-1.3745159 0.55816382 2.7196996
-1.0508447 0.55633008 2.7119999
-1.0445346 0.55699658 2.715235
-1.3871125 0.58604193 2.7101667
-1.3732283 0.58529472 2.7205553
-1.0510908 0.58486295 2.7065001
-1.0405396 0.58392262 2.7163332
-1.3847613 0.61284423 2.7054002
-1.3730997 0.61455292 2.7160525
-1.0506804 0.60311508 2.7156668
-1.0425875 0.61511797 2.7131376
-1.3892349 0.64838195 2.7049284
-1.3728698 0.64445239 2.7193329
-1.0549519 0.65258342 2.7074707
-1.0401495 0.64454699 2.7161717
-1.4112544 0.68668419 2.701
-1.3923956 0.67602998 2.707499
-1.3731494 0.67371053 2.7229998
-1.0542427 0.6736595 2.7094617
-1.0405573 0.67715979 2.7189999
-1.386943 0.70236784 2.7107773
-1.3785869 0.70660031 2.7229998
-1.0510557 0.70862794 2.7072859
-1.0426273 0.70123136 2.7138333
-1.3874164 0.73742241 2.7128465
-1.3755084 0.73398989 2.7229998
-1.0503519 0.72331047 2.723
-1.0439804 0.73833817 2.7119999
-1.3922609 0.76477808 2.7084992
-1.375006 0.76810497 2.7229998
-1.0510088 0.76769638 2.7083333
-1.0451936 0.763991 2.7077694
-1.3917575 0.79489481 2.712281
-1.3747408 0.79386449 2.7229998
-1.0375187 0.79502863 2.7077682
-1.3898979 0.8232587 2.7055511
-1.376106 0.822963 2.7138333
-1.0557349 0.82943338 2.701
-1.0383748 0.8254258 2.7085617
-1.4112544 0.86664283 2.701
-1.3925202 0.85700685 2.713064
-1.378189 0.84187293 2.7230003
-1.0544077 0.85464698 2.7065001
-1.0422688 0.85163903 2.7144444
-1.4169831 0.88647622 2.7042592
-1.4017249 0.88454479 2.713896
-1.0517945 0.88900918 2.7135713
-1.0445547 0.88477641 2.717
-1.4212525 0.91695809 2.7102251
-1.3988779 0.91746652 2.723
-1.0529805 0.90647376 2.7175
-1.043506 0.91553617 2.7137368
-1.4442339 0.950091 2.723
-1.4255276 0.94428843 2.7218418
-1.3995146 0.94229311 2.723
-1.0526968 0.95202649 2.705889
-1.0441533 0.94140846 2.7127333
-1.3869419 0.9882856 2.723
-1.3773932 0.9882856 2.723
-1.0510907 0.96567369 2.7065001
-1.0423957 0.97802752 2.7098
-1.4434383 1.0002215 2.723
-1.4370723 1.0002214 2.723
-1.3869419 0.99544704 2.723
-1.3773932 0.99305993 2.723
-1.0375788 1.0051825 2.712687
-1.0521706 1.0379505 2.705889
-1.0398095 1.0340806 2.716172
-1.0504928 1.0607233 2.719857
-1.0438672 1.0646238 2.711421
-1.0408032 1.0837721 2.723
-1.2148145 -1.0849136 2.7439997
-1.1474584 -1.0849136 2.7439997
-1.1246054 -1.0849136 2.7439997
-1.1065637 -1.082508 2.744
-1.4265049 -1.0661502 2.7439997
-1.4072604 -1.0608578 2.7439997
-1.2407413 -1.0718164 2.7439997
-1.215668 -1.0648153 2.7440004
-1.186385 -1.0602019 2.7439997
-1.1556374 -1.0621084 2.744
-1.1234027 -1.0704801 2.7439997
-1.1033562 -1.0632634 2.7440002
-1.4568151 -1.0401698 2.744
-1.4278004 -1.0345817 2.7440002
-1.4051554 -1.0346973 2.7439997
-1.2474617 -1.0268362 2.744
-1.2086668 -1.0397422 2.7439997
-1.1859475 -1.0368021 2.7440009
-1.1550761 -1.0380046 2.7440009
-1.1225281 -1.0315535 2.7439997
-1.1056015 -1.0372833 2.744
-1.4609849 -1.0111426 2.744
-1.4224958 -1.0143502 2.744
-1.3916628 -1.0080127 2.7440004
-1.3702146 -1.0040863 2.7439997
-1.347121 -0.99831283 2.744
-1.2484926 -1.0175575 2.7439997
-1.2043903 -1.0103407 2.7439997
-1.1860125 -1.00735 2.7440012
-1.1548603 -1.00701 2.7440002
-1.1234025 -1.0055299 2.7440014
-1.103603 -1.0014586 2.744
-1.3856101 -0.97354966 2.7439997
-1.3759879 -0.98387945 2.744
-1.2358233 -0.9737761 2.744
-1.2201807 -0.968521 2.744
-1.1831048 -0.97097695 2.7439997
-1.1591856 -0.97455794 2.7439997
-1.120106 -0.97381169 2.7440002
-1.1057618 -0.97586083 2.744
-1.385954 -0.94332844 2.744
-1.3680838 -0.93817347 2.744
-1.2390118 -0.94496572 2.7439997
-1.2162577 -0.94731492 2.7440007
-1.1893154 -0.94972038 2.7439997
-1.1591163 -0.94539028 2.7440002
-1.1220835 -0.94701976 2.7440004
-1.10496 -0.94458848 2.7439997
-1.3882345 -0.91871029 2.7439997
-1.3584929 -0.92199069 2.7439997
-1.3451966 -0.91844791 2.7439997
-1.2324553 -0.91732526 2.744
-1.2158231 -0.91768754 2.7440004
-1.1837826 -0.91941017 2.7439997
-1.1637909 -0.91589034 2.7439997
-1.1185915 -0.92614567 2.744
-1.3824028 -0.87963796 2.744
-1.3642006 -0.88212377 2.7439997
-1.3385298 -0.8828454 2.744
-1.3158486 -0.87081748 2.744
-1.2674966 -0.88308591 2.7439997
-1.2432002 -0.88452923 2.7440012
-1.2167544 -0.88168126 2.7440004
-1.1840003 -0.87906504 2.7439997
-1.1626936 -0.88926029 2.7439997
-1.3619919 -0.85529077 2.7439997
-1.3399043 -0.8595916 2.744
-1.3158486 -0.86600637 2.744
-1.2379681 -0.85788763 2.7439997
-1.2172201 -0.85584956 2.7440002
-1.1828547 -0.85329121 2.7440004
-1.1656722 -0.85088557 2.744
-1.3608673 -0.82430989 2.7439997
-1.347121 -0.8227061 2.7440002
-1.215239 -0.82440418 2.7439997
-1.1859475 -0.82511169 2.7440009
-1.1630946 -0.8299228 2.7439997
-1.3576181 -0.79471391 2.7439997
-1.3451966 -0.80442375 2.744
-1.2072542 -0.79830682 2.744
-1.1880213 -0.7943368 2.7440004
-1.1642973 -0.78902799 2.7439997
-1.3807991 -0.75775552 2.744
-1.3622621 -0.7658211 2.7440009
-1.3429112 -0.76136392 2.7439997
-1.2027866 -0.76256669 2.744
-1.1881527 -0.76998377 2.744
-1.1642976 -0.76737791 2.7439997
-1.1330249 -0.76737785 2.744
-1.3560561 -0.73610538 2.744
-1.338186 -0.73198158 2.744
-1.1811364 -0.74332213 2.744
-1.1570807 -0.72167194 2.744
-1.3567432 -0.69761628 2.744
-1.3407062 -0.70603573 2.744
-1.1570807 -0.71686083 2.744
-1.3551396 -0.67088771 2.7439997
-1.344497 -0.67880899 2.7439997
-1.3549938 -0.64994216 2.7439997
-1.3423097 -0.64589643 2.7439997
-1.3627158 -0.61250865 2.7440004
-1.3399041 -0.61276513 2.7439997
-1.1570807 -0.61582673 2.744
-1.3577055 -0.59128994 2.7439997
-1.3439137 -0.58856362 2.7439997
-1.3547387 -0.5536828 2.744
-1.347121 -0.55167818 2.7440002
-1.356102 -0.52890539 2.744
-1.3459183 -0.52441496 2.7439997
-1.3807991 -0.48111466 2.744
-1.3603072 -0.49180609 2.7440002
-1.3471211 -0.49795371 2.744
-1.1209972 -0.48592579 2.7440002
-1.1065637 -0.48352021 2.744
-1.3832048 -0.46379453 2.7439997
-1.3663656 -0.46668121 2.7440002
-1.0945358 -0.47630349 2.744
-1.0632634 -0.4746998 2.7440002
-1.0392077 -0.46988863 2.7440002
-1.019963 -0.45224777 2.744
-1.3861164 -0.43502894 2.7439997
-1.369085 -0.43488586 2.7439997
-1.0127463 -0.43139943 2.744
-1.3856101 -0.41616416 2.744
-1.3676611 -0.40561667 2.7440002
-1.0137774 -0.40516725 2.744
-1.3567435 -0.37526941 2.7439997
-1.3471211 -0.37286386 2.744
-1.0131838 -0.37461334 2.7439997
-1.3807991 -0.33918583 2.744
-1.3637196 -0.34375641 2.7439997
-1.0078391 -0.34255359 2.744
-1.3628095 -0.31544387 2.7439997
-1.0247742 -0.31513011 2.744
-1.0110282 -0.31581733 2.7440004
-1.3584929 -0.28582585 2.7439997
-1.0247742 -0.29829109 2.744
-1.0123664 -0.28866878 2.7439997
-1.3585938 -0.25591597 2.7440002
-1.3451966 -0.25066075 2.7439997
-1.0247742 -0.2429629 2.744
-1.0093279 -0.24891351 2.7439997
-1.3607055 -0.22442585 2.7439997
-1.3447155 -0.23093502 2.744
-1.0247742 -0.22371832 2.744
-1.0126418 -0.22549634 2.7439997
-1.3691956 -0.19499291 2.7439997
-1.0247742 -0.19725701 2.744
-1.0157934 -0.19693628 2.744
-1.3643303 -0.16579953 2.7440002
-1.0199631 -0.16598457 2.744
-1.3569839 -0.13735823 2.7439997
-1.3447155 -0.13471213 2.744
-1.0279816 -0.13310838 2.7440002
-1.019963 -0.14914554 2.744
-1.357278 -0.10130136 2.7439997
-1.3459182 -0.11185914 2.744
-1.0247742 -0.10103408 2.744
-1.019963 -0.098628506 2.744
-1.3591489 -0.079383925 2.744
-1.3413476 -0.069921993 2.744
-1.0247742 -0.086600639 2.744
-1.0147818 -0.074757814 2.744
-1.3807991 -0.05292261 2.744
-1.3626409 -0.044076297 2.7440004
-1.3451966 -0.047630351 2.7439997
-1.0127463 -0.045705892 2.744
-1.3807991 -0.016839013 2.744
-1.3628668 -0.017057702 2.7440009
-1.347121 -0.026461305 2.744
-1.0279816 -0.011226008 2.7439997
-1.0177763 -0.016620323 2.7439997
-1.3827235 0.0057733753 2.744
-1.3657447 0.013036652 2.7440004
-1.0247742 0.01443344 2.744
-1.0185198 0.01347121 2.7439997
-1.3635226 0.047236715 2.7439997
-1.0311048 0.046338938 2.7439997
-1.0183594 0.045438606 2.7439997
-1.3567435 0.074572779 2.7439997
-1.347121 0.07938391 2.744
-1.027735 0.075498 2.744
-1.3611535 0.10424151 2.744
-1.0289838 0.10223686 2.7439997
-1.016221 0.10905265 2.7439997
-1.3531351 0.12990095 2.7439997
-1.3428442 0.13685039 2.7439997
-1.0265238 0.1329626 2.7439997
-1.0169015 0.1290262 2.7439997
-1.360638 0.16724463 2.7439997
-1.3447155 0.16057201 2.7439997
-1.0247742 0.16598456 2.744
-1.0199631 0.1674279 2.744
-1.3627574 0.19384912 2.744
-1.347121 0.19485143 2.744
-1.0247742 0.19485144 2.744
-1.019963 0.18282357 2.744
-1.3807992 0.22371832 2.744
-1.3725514 0.22234373 2.744
-1.0266987 0.22564276 2.7439997
-1.3807991 0.26701862 2.744
-1.366521 0.25623235 2.7440004
-1.0247742 0.25499079 2.744
-1.019963 0.25499076 2.744
-1.3807992 0.28626323 2.744
-1.3687714 0.28626323 2.744
-1.028475 0.28940898 2.744
-1.0199631 0.28385767 2.744
-1.3807992 0.31272453 2.744
-1.367106 0.31550017 2.7440002
-1.035084 0.31341183 2.744
-1.3807991 0.35361928 2.744
-1.3666863 0.34191221 2.744
-1.0368022 0.3449592 2.7439997
-1.3807992 0.37045828 2.744
-1.3722078 0.37526944 2.744
-1.0327127 0.37478837 2.7439997
-1.3671674 0.40173075 2.744
-1.0322917 0.40654191 2.7439997
-1.3807991 0.44503105 2.744
-1.3675684 0.44021997 2.744
-1.0332644 0.43724835 2.7439997
-1.3807992 0.46427566 2.744
-1.3717782 0.46307284 2.7439997
-1.0352556 0.46479115 2.7440004
0.75534999 0.47630352 2.7440002
0.83713949 0.47630349 2.744
0.85157293 0.4738979 2.744
0.87803423 0.47630349 2.744
0.92614567 0.47630349 2.744
0.94394696 0.46956787 2.744
0.97185153 0.46668121 2.744
1.003124 0.47069046 2.744
1.0388067 0.46227103 2.744
1.0704801 0.46668121 2.744
1.0849135 0.47149235 2.744
1.1223719 0.45843354 2.744
1.1526705 0.47189328 2.744
1.1931643 0.46988863 2.7440002
1.2238355 0.46367425 2.7439997
1.2419631 0.47011775 2.744
-1.3850088 0.48532438 2.7439997
-1.3724598 0.49779335 2.744
-1.037668 0.49439341 2.744
0.20275548 0.50654501 2.744
0.22087535 0.50298351 2.7439997
0.25499076 0.5003593 2.744
0.28626323 0.5003593 2.744
0.31547377 0.50104654 2.744
0.34159139 0.49675086 2.7439997
0.37496874 0.50126135 2.7439997
0.40654191 0.5003593 2.744
0.42578647 0.5051704 2.744
0.4955481 0.50356668 2.744
0.53128803 0.49898466 2.744
0.55769199 0.49113786 2.744
0.58288896 0.4940677 2.744
0.61281979 0.49614951 2.7439997
0.6398825 0.49073693 2.744
0.6735605 0.48432207 2.7440002
0.70930058 0.48730043 2.744
0.73473084 0.48455119 2.744
0.7697835 0.48325294 2.7439997
0.79865032 0.49073693 2.744
0.82270616 0.48496357 2.744
0.89487326 0.48111469 2.7440002
0.9165234 0.48111469 2.744
0.93336242 0.48111466 2.744
-1.3826033 0.5310303 2.7439997
-1.369802 0.52601868 2.7439997
-1.0405823 0.52819514 2.744
0.17801242 0.53403723 2.744
0.18703331 0.52261078 2.7439997
-1.3842357 0.54778337 2.744
-1.3688979 0.55632049 2.7439997
-1.0355577 0.55610216 2.7440004
-1.36396 0.58455431 2.744
-1.0307883 0.58335155 2.7439997
-1.3633041 0.61298376 2.7439997
-1.0346256 0.61170286 2.7439997
-1.019963 0.60379887 2.744
-0.31691673 0.62849373 2.7555001
-1.361254 0.64529496 2.7440007
-1.347121 0.64228803 2.744
-1.0335219 0.64709926 2.7439997
-1.3807991 0.6735605 2.744
-1.3638638 0.67413777 2.744
-1.0319909 0.67596608 2.7439997
-1.3836057 0.70282835 2.744
-1.3699106 0.70647883 2.7439997
-1.0374035 0.70543432 2.7439997
-1.3807991 0.72167194 2.744
-1.3678298 0.73652375 2.7439997
-1.0440189 0.7336998 2.7439997
-1.3807991 0.75775552 2.744
-1.3662243 0.76412332 2.7440009
-1.347121 0.76256669 2.744
-1.0536411 0.77700019 2.744
-1.0435122 0.76623839 2.7439997
-1.3807991 0.8082726 2.744
-1.3693057 0.79544288 2.7439997
-1.0366169 0.79494941 2.744
-1.3807991 0.83232832 2.7440002
-1.3705753 0.82210463 2.7439997
-1.035084 0.82614255 2.744
-1.3845 0.85712421 2.744
-1.372489 0.85813349 2.7439997
-1.0396086 0.85678506 2.744
0.73546392 0.85895008 2.744
-1.3914905 0.88738918 2.7440009
-1.3693266 0.88580602 2.7440002
-1.0536411 0.88043982 2.744
-1.0405197 0.88765639 2.7439997
0.73473084 0.87494135 2.744
-1.3919247 0.91471922 2.7440007
-1.3674349 0.91732544 2.7440002
-1.039714 0.91335809 2.7439997
0.74380326 0.91796678 2.744
0.75053883 0.92133451 2.744
-1.4240993 0.95260698 2.744
-1.3894085 0.94577008 2.7439997
-1.3666663 0.93907559 2.7439997
-1.0429085 0.94779599 2.744
-1.4509404 0.97716916 2.7439997
-1.4265052 0.9781431 2.7440002
-1.3970364 0.97621179 2.7440007
-1.3743843 0.98468131 2.7440002
-1.0536411 0.96704048 2.7440002
-1.0440187 0.97496468 2.7439997
0.73851103 0.98147386 2.7439997
-1.4497588 1.0041932 2.7439997
-1.4265639 1.0058814 2.7440012
-1.3959919 1.006669 2.7440012
-1.3743843 1.0007185 2.7439997
-1.0370693 1.0001838 2.7439997
0.73610544 0.9910962 2.7440002
-1.4515917 1.0268362 2.744
-1.4253021 1.0259769 2.744
-1.3978567 1.026961 2.7439997
-1.0349311 1.0360003 2.7439997
-1.0387703 1.066981 2.7439997
-1.0432169 1.0873191 2.744
-1.4838575 -1.089937 2.7890005
-1.4534695 -1.0899208 2.7703843
-1.4254971 -1.0924392 2.7769997
-1.3950121 -1.0946959 2.7890007
-1.3771594 -1.0917029 2.7889998
-1.3286955 -1.0943226 2.7890003
-1.3032039 -1.0910089 2.773947
-1.2757257 -1.0896772 2.7680471
-1.2468287 -1.0940071 2.767
-1.1554593 -1.0834957 2.767
-1.1139228 -1.0916562 2.7795715
-1.103928 -1.094148 2.7889998
-1.4828539 -1.0704753 2.7801998
-1.4545889 -1.0678196 2.7699997
-1.4214435 -1.0641611 2.7724996
-1.3976363 -1.0648222 2.7816672
-1.3720623 -1.0626651 2.7822309
-1.3268327 -1.0676602 2.789
-1.3021601 -1.0655196 2.7749994
-1.2750455 -1.0678144 2.7766247
-1.2476554 -1.0602765 2.7697496
-1.1619277 -1.0721755 2.767
-1.1139256 -1.0647094 2.7779999
