# .PCD v0.7 - Point Cloud Data file format
VERSION 0.7
FIELDS x y z
SIZE 4 4 4
TYPE F F F
COUNT 1 1 1
WIDTH 1504
HEIGHT 1
VIEWPOINT 0 0 0 1 0 0 0
POINTS 1504
DATA ascii
-0.19272244 -1.2646893 3.7740002
-0.2118987 -1.1506166 3.7514637
-0.19727167 -1.1480633 3.7739992
-0.2163447 -1.0536579 3.7455251
-0.19766352 -1.0629545 3.7675381
-0.2251914 -0.95052218 3.7580278
-0.23811997 -0.84460461 3.7548416
-0.23451847 -0.75617504 3.7508445
-0.24800755 -0.64064598 3.7548523
-0.2618461 -0.54524618 3.7599998
1.1941777 -0.52674693 3.7320001
1.2535359 -0.51460385 3.7376931
1.3610691 -0.51132655 3.7434545
1.4117537 -0.50902468 3.75825
-0.26403499 -0.44153139 3.7608416
1.2487496 -0.48838982 3.737546
1.3762109 -0.47473508 3.7560005
1.411045 -0.44735792 3.7535388
-0.27269077 -0.36150053 3.7633777
1.3937527 -0.33502415 3.7320001
1.4079994 -0.35523379 3.7563152
-0.28047559 -0.25182715 3.7602546
-0.30386099 -0.12800604 3.7319994
-0.28371668 -0.15880905 3.7618988
-0.3094084 -0.034187697 3.7398756
-0.28964049 -0.048660934 3.7694359
-0.3114107 0.040237408 3.7430942
-0.28939575 0.046161972 3.7722864
1.8858678 0.099256203 3.7739999
-0.30551171 0.14771131 3.7428892
-0.28848931 0.17090178 3.7658341
0.89992279 0.19520384 3.7739999
0.92670643 0.19252551 3.7739999
1.0529428 0.19685811 3.7739992
1.1535202 0.19240816 3.772047
1.2492963 0.19012749 3.7549999
1.3610843 0.18035926 3.7508266
1.4513592 0.16878122 3.7467558
1.5385376 0.17298529 3.7479308
1.6558231 0.1528178 3.747
1.7470523 0.13398032 3.7479703
1.8526137 0.12939684 3.7509003
1.9175376 0.11597182 3.7398744
-1.3335288 0.28626555 3.7481544
-1.2528728 0.28328657 3.7671885
-1.1531243 0.28481779 3.7513843
-1.0671833 0.28611219 3.7564182
-0.92308259 0.29776859 3.7739999
-0.89330578 0.29776859 3.7739999
-0.70471901 0.29776859 3.7739999
-0.67891234 0.29578349 3.7739999
-0.54199958 0.27717111 3.7582493
-0.31133997 0.23481047 3.7578461
-0.26484606 0.26299384 3.7593279
-0.14549093 0.28198126 3.7713411
-0.052812487 0.27749208 3.757199
0.0465606 0.27940407 3.7630441
0.16035327 0.26927444 3.7489154
0.24816348 0.25652921 3.7565367
0.34781966 0.2606861 3.7533336
0.44995272 0.23463634 3.7495003
0.55350858 0.24376863 3.7564361
0.65612423 0.25647965 3.762732
0.75218743 0.23520011 3.7544005
0.84930909 0.22477256 3.7555785
0.94918859 0.21963602 3.7572005
1.0604275 0.21724129 3.7452629
1.1610055 0.2096242 3.7363079
1.2285309 0.20939009 3.7320001
1.3414053 0.20284663 3.7320001
1.4722739 0.20284663 3.7320001
-1.3164582 0.30713269 3.7319994
-1.259827 0.31030506 3.7397137
-1.1385586 0.30099824 3.7320001
-1.0198131 0.31251201 3.7500005
-0.95410746 0.31608421 3.7505994
-0.84760243 0.3143543 3.7529993
-0.74494094 0.31348559 3.7578998
-0.64067131 0.31403944 3.7503264
-0.57542568 0.31741217 3.7578466
-0.23941649 0.31170797 3.744194
-0.15545198 0.30630746 3.7428391
-0.09534727 0.30941126 3.7320004
0.044690542 0.30710247 3.7466996
-0.15511757 -1.5114962 3.8216586
1.972322 -1.5392907 3.859
-0.20072161 -1.421778 3.816
-0.163095 -1.4563551 3.8299148
-0.20072159 -1.3916698 3.816
-0.16969086 -1.3515867 3.8342748
-0.20072159 -1.2628733 3.816
-0.18127652 -1.252489 3.829649
-0.20072159 -1.1441131 3.816
-0.18660411 -1.1486179 3.8368866
-0.20239428 -1.0270255 3.816
-0.18581942 -1.0558159 3.830071
-0.20990413 -0.93944418 3.8189998
-0.18783428 -0.96340191 3.8472738
-0.21384396 -0.8570959 3.8204243
-0.19260108 -0.857023 3.8515224
-0.21346179 -0.74237466 3.8345208
-0.19621728 -0.77230346 3.859
-1.3405361 -0.61656201 3.8589997
-0.22610936 -0.65711224 3.8298199
-0.23431845 -0.54759693 3.8299749
1.1976389 -0.51184005 3.816
1.2220392 -0.51532149 3.8357093
1.3983605 -0.51518542 3.816
1.440964 -0.53221172 3.8482504
-0.2370708 -0.45302185 3.8382149
1.2132506 -0.49511325 3.816
1.3928149 -0.42222658 3.8394547
1.4212205 -0.43205509 3.8459446
-0.24638085 -0.34030113 3.8310497
1.3920091 -0.35755384 3.8374984
1.4220943 -0.35042527 3.8440678
-0.25968266 -0.2493863 3.835845
1.3883218 -0.28037083 3.8590004
1.4231639 -0.25659752 3.8590007
-0.26124153 -0.1525694 3.830332
1.4123358 -0.18451312 3.8267508
-0.27495825 -0.051483005 3.831636
-0.27162871 0.052501418 3.8280685
1.4310329 0.094725586 3.859
1.8578858 0.076945819 3.8484681
1.9315883 0.087837689 3.8540392
-0.3010824 0.11374224 3.816
-0.27213821 0.14645435 3.8335183
0.2807937 0.19621727 3.859
0.46686181 0.19621727 3.859
0.56530142 0.19113359 3.8475339
0.65979052 0.18547015 3.8511007
0.75200516 0.19009559 3.8590004
0.85708052 0.18588445 3.8541303
0.95286888 0.17372058 3.8429456
1.053681 0.16677432 3.8424401
1.1526003 0.17367376 3.8381696
1.249377 0.16937678 3.8473268
1.3564883 0.16107407 3.8465438
1.451534 0.13320309 3.8466496
1.5455962 0.13687742 3.843555
1.6441034 0.13111979 3.8425429
1.7441913 0.12729736 3.8459706
1.8648298 0.11462807 3.8324671
1.9496152 0.10358576 3.8255565
-1.4186283 0.27966601 3.859
-1.3476545 0.27228194 3.8307438
-1.2536987 0.2627908 3.8319995
-1.1479217 0.26639181 3.8380516
-1.0453961 0.27517959 3.8360658
-0.95388752 0.28304622 3.8309548
-0.85084426 0.28813645 3.8417985
-0.74793351 0.27724513 3.8300228
-0.65169597 0.28011069 3.8285186
-0.57016146 0.27412194 3.8270583
-0.24134561 0.24333413 3.8303316
-0.15725181 0.2607837 3.8288076
-0.046442226 0.25134563 3.8362341
0.044261567 0.25704408 3.8368499
0.14815822 0.23557448 3.8423061
0.25251937 0.2242098 3.8367035
0.35464621 0.23688804 3.8428118
0.44863325 0.21909823 3.8437395
0.55322212 0.22355713 3.8320601
0.64969677 0.22740656 3.8221979
0.75125784 0.2157954 3.8351097
0.85200834 0.20870443 3.8207774
0.96964562 0.2098832 3.8246009
1.0192212 0.2051959 3.8246002
1.1039687 0.20072159 3.816
-1.008626 0.30275509 3.816
-0.97935408 0.30191875 3.816
-0.84637612 0.30108243 3.8160009
-0.75939667 0.3010824 3.8160007
-0.62558234 0.30275506 3.8160007
-0.5820927 0.3010824 3.816
0.045496896 0.30375868 3.816
1.9934676 -1.6059784 3.9940002
2.0084069 -1.6078459 3.994
-0.11076947 -1.54292 3.9496663
-0.094255686 -1.525719 3.9824998
1.9876106 -1.556736 3.9401145
2.0071065 -1.5353177 3.956887
-0.12807207 -1.4496593 3.9483225
-0.097010367 -1.4854025 3.9837778
1.9951905 -1.486508 3.9030004
2.0236943 -1.4567858 3.9773719
-0.13825157 -1.3434211 3.9472504
2.0302274 -1.3829848 3.9761119
-0.15254831 -1.2508833 3.9495184
-0.15863737 -1.1560525 3.9557605
-0.15750921 -1.0520021 3.9382942
-0.16946428 -0.94946688 3.9592073
-0.16867231 -0.85231173 3.9585598
-0.20074263 -0.78220403 3.948
-0.17595351 -0.7535724 3.9544425
-1.4163764 -0.60378605 3.9837778
-1.3775836 -0.61293042 3.9369164
-0.21225783 -0.63717103 3.9288034
-0.18668723 -0.65423983 3.9787347
2.0553255 -0.64776015 3.994
-1.4250726 -0.56139231 3.9940021
-1.3801906 -0.57677716 3.994
-0.21026455 -0.54992431 3.9445372
-0.1914126 -0.5551939 3.992564
1.4483658 -0.54545808 3.9211335
-1.4431987 -0.43670034 3.9846134
-0.21331437 -0.44869223 3.9416277
-0.18110725 -0.46508336 3.9940023
1.3932878 -0.41743889 3.9030004
1.4164954 -0.44026354 3.9162352
-1.4238687 -0.39686173 3.9709997
-0.21653068 -0.34893394 3.9514172
-0.19121715 -0.36788285 3.9880006
1.3936446 -0.35049397 3.9030004
1.4225544 -0.32024077 3.9302003
-0.23043403 -0.25042924 3.9421864
1.3916703 -0.26315448 3.9030004
1.4212178 -0.23498915 3.9118044
-0.23343766 -0.14639667 3.9534528
1.3891819 -0.10607053 3.9030004
1.4345394 -0.14650756 3.9399569
-0.24644873 -0.053795591 3.9526238
1.3914585 -0.073399544 3.9094286
1.4374943 -0.060383461 3.9597597
-0.24491611 0.040876385 3.9581287
1.0197846 0.095413327 3.9939997
1.4322436 0.093716376 3.9302671
1.5613507 0.084213592 3.9593332
1.69007 0.093715169 3.9808571
1.7530541 0.075666882 3.9544275
1.8464149 0.05931475 3.9463949
1.9494283 0.057850718 3.9501331
2.0222895 0.069718346 3.9592919
-1.2526565 0.19402075 3.9837773
-0.23542532 0.14856571 3.9584179
-0.16946806 0.19187708 3.9940002
-0.05128964 0.1886272 3.9804714
0.055069834 0.19090822 3.9825947
0.15163924 0.19236733 3.9718008
0.25188968 0.18862426 3.955189
0.34049436 0.18632907 3.9812105
0.45466802 0.17654149 3.9614155
0.54601735 0.17796119 3.9737506
0.64722961 0.16170917 3.968858
0.76466775 0.16992782 3.9406633
0.84257591 0.1688863 3.9457505
0.96450269 0.14504248 3.9499326
1.0333706 0.13589959 3.9501119
1.1527163 0.14204635 3.9495871
1.2476298 0.13754246 3.9526491
1.3476808 0.13134438 3.9337234
1.441801 0.1123014 3.9157178
1.5611188 0.11376919 3.9030004
1.6374668 0.11609704 3.9129024
1.7550253 0.11229338 3.9337142
1.8331546 0.10643085 3.9243529
1.9047652 0.11554641 3.994
-1.4389068 0.23714964 3.9521239
-1.3502848 0.23767154 3.9522231
-1.2432249 0.23156196 3.9379334
-1.1514024 0.24152124 3.9405234
-1.0526929 0.23919205 3.9584744
-0.94558352 0.2518619 3.9427378
-0.85613269 0.25499043 3.9451184
-0.75153804 0.23951817 3.9506574
-0.65122122 0.24579498 3.9657817
-0.58006012 0.24065007 3.9293606
-0.22523838 0.22762418 3.9255667
-0.1508761 0.22680965 3.9434557
-0.055241253 0.22165076 3.9340706
0.044452805 0.22052744 3.9335191
0.15201154 0.21658728 3.9271781
0.22949348 0.20849651 3.9226871
0.35528204 0.21068758 3.9429808
0.42552474 0.20731175 3.9109411
0.53299105 0.20509171 3.9111822
0.7630235 0.2052978 3.9030001
-0.091346912 -1.6112642 4.0783334
1.998032 -1.6048023 4.0409999
2.0138786 -1.6297852 4.0742311
-0.084929653 -1.5573362 4.0678229
1.998032 -1.5729188 4.0410004
2.0208464 -1.5401057 4.0656657
-0.10368443 -1.4271265 4.0698004
-0.095005803 -1.451097 4.0710001
2.0296807 -1.4534473 4.0686913
-0.11247776 -1.351977 4.0642724
-0.09320195 -1.3119966 4.0890002
2.0526156 -1.3460422 4.0523396
-0.1185668 -1.2489165 4.0633087
-0.091497339 -1.2755278 4.0821433
2.0536733 -1.2535604 4.0756464
2.1006284 -1.21521 4.0890002
-0.12449595 -1.167841 4.0639095
2.0649581 -1.1505016 4.0786176
2.1006284 -1.1327621 4.0890002
-0.13119009 -1.0554271 4.0675268
2.0710561 -1.0715361 4.0676675
2.1044016 -1.0342774 4.0889997
-0.13918471 -0.95270473 4.0686359
2.0916667 -0.97503567 4.0890002
2.104213 -0.97862041 4.0890007
-0.13712989 -0.84526277 4.0593281
-0.14655581 -0.740583 4.064631
-1.4028735 -0.60224366 4.0409999
-1.3887614 -0.60991079 4.0668464
-0.15658017 -0.64624447 4.063355
1.8988388 -0.66246808 4.0409999
1.9296534 -0.67346859 4.0802722
2.0716987 -0.66237134 4.054091
2.104213 -0.68109113 4.0890002
-1.4479599 -0.55263275 4.061398
-1.3827821 -0.57857043 4.0524287
-0.17537682 -0.55475122 4.0622091
-1.5055698 -0.45167097 4.0890002
-1.4520103 -0.46454597 4.0634799
-1.3957882 -0.46408188 4.0409999
-0.17020196 -0.44384935 4.0599089
1.4524699 -0.46408185 4.0409999
-1.4586868 -0.38730198 4.0721998
-0.2062709 -0.31176108 4.0570002
-0.18037967 -0.35594699 4.0687895
1.4482148 -0.32262209 4.0890002
-1.5570996 -0.28095004 4.0890002
-0.20632499 -0.26788017 4.0581431
-0.19129513 -0.23183262 4.068428
1.4450856 -0.21719928 4.0615721
-0.20937653 -0.12882471 4.0483847
-0.18955451 -0.15466437 4.0670877
1.4433587 -0.15981311 4.0638571
1.5097778 -0.11001727 4.0490003
-0.21609212 -0.056565184 4.0677905
-0.19357327 -0.053770352 4.0890002
1.4680631 -0.029815493 4.0443106
1.5127529 -0.062542722 4.0810003
1.7887604 -0.0071693803 4.0890002
1.8442153 -0.020231945 4.0736051
2.1069014 -0.015234933 4.0890002
-0.21616471 0.054995526 4.0613642
-0.18385193 0.071284726 4.0700235
0.55668688 0.09385176 4.070539
0.79580122 0.089617252 4.0890002
0.83293021 0.090465404 4.0793996
0.9555198 0.076290853 4.0853086
1.0576785 0.080610327 4.0564299
1.1483008 0.087452769 4.0702176
1.2681323 0.093627803 4.0723839
1.3621757 0.07942941 4.0786619
1.4538416 0.055279303 4.0738363
1.5607328 0.067811914 4.0724993
1.6582355 0.063990645 4.0709982
1.7434988 0.046251085 4.0681472
1.8372053 0.018463835 4.0563326
1.9492003 0.018910209 4.0667562
2.0572348 0.036801849 4.0626469
2.1072857 0.017411353 4.0890007
-1.5163239 0.19357327 4.0890002
-1.4471262 0.19234407 4.0790682
-1.347806 0.18738611 4.0824552
-1.2513781 0.18433808 4.0683112
-1.1638215 0.18700375 4.0855703
-1.0380619 0.18811564 4.0821428
-0.64882886 0.19357325 4.0890002
-0.2079958 0.13611478 4.0442004
-0.16267639 0.15792114 4.0639062
-0.047488548 0.16936246 4.0696459
0.04504393 0.17270201 4.0575013
0.15015508 0.16893698 4.0660138
0.2441218 0.16275722 4.0581937
0.36574167 0.1705866 4.06212
0.43826571 0.1480138 4.0561581
0.55236441 0.13932642 4.0549154
0.63077116 0.14345828 4.0564842
0.76384217 0.13709904 4.0566525
0.85214043 0.12862892 4.0656686
0.9419629 0.12500103 4.0682983
1.0654349 0.11978618 4.0493488
1.157198 0.111039 4.0542002
1.2447851 0.11218838 4.0527744
1.3486977 0.11066962 4.0573902
1.5450014 0.10037132 4.0890007
1.9271797 0.10627829 4.0409999
-1.5127524 0.20231889 4.0730004
-1.4373116 0.20791569 4.0570006
-1.3458167 0.20792277 4.0520773
-1.2168311 0.21038228 4.0713158
-1.1591383 0.21211308 4.0664701
-1.0408722 0.21257509 4.0712614
-0.95118821 0.22122522 4.0662637
-0.85574406 0.21710435 4.0661812
-0.74470812 0.21251379 4.0722566
-0.64760339 0.20929553 4.0650001
-0.59001648 0.20785417 4.068429
-0.055092186 -1.6349392 4.1680017
1.4606801 -1.6141959 4.190001
1.6705477 -1.6234127 4.1594005
1.7154 -1.6456084 4.1900001
1.8408551 -1.6292205 4.190001
2.0369127 -1.6365975 4.1696014
-0.060395624 -1.5483302 4.1586599
1.461947 -1.5868368 4.1899996
1.5831636 -1.5758171 4.1900001
1.7207685 -1.5190231 4.1899996
1.8953884 -1.5354116 4.1900001
1.9429656 -1.5340124 4.1900015
2.0309658 -1.5453638 4.170608
-0.10401767 -1.4030288 4.1389999
-0.078482829 -1.4461097 4.1626129
1.6619711 -1.4546007 4.1900005
1.7509493 -1.4691683 4.1900015
1.822291 -1.4343976 4.1900001
1.9247742 -1.4325609 4.1900001
2.0438485 -1.4440423 4.1737499
-0.10788809 -1.378355 4.1389999
-0.080590107 -1.3549358 4.158618
1.4886614 -1.3510821 4.1899996
1.5336485 -1.3646796 4.1900015
1.6615257 -1.3064466 4.1899996
1.7942077 -1.3263713 4.1900005
1.8500479 -1.3249059 4.186676
1.9348335 -1.3330194 4.1782861
2.049216 -1.3590549 4.1745844
2.1010892 -1.3664427 4.1900001
-0.10522716 -1.2424064 4.1389999
-0.078211002 -1.2458633 4.1700807
1.6582024 -1.2898297 4.1900005
1.7998843 -1.2893049 4.1900001
1.8321731 -1.2888869 4.1786675
1.9982389 -1.2231867 4.1900001
2.0380836 -1.2402846 4.1605039
-0.1098984 -1.1508285 4.1404176
-0.085214756 -1.1541911 4.1624613
1.6345888 -1.1827811 4.1900001
1.7998843 -1.1827811 4.1900001
1.8805995 -1.1593159 4.1754293
1.9333894 -1.1584959 4.1796136
2.0542045 -1.1576147 4.171093
-0.11632023 -1.0453368 4.1515574
-0.086885639 -1.0521721 4.1843343
1.7352356 -1.0307093 4.1900001
1.906408 -1.0799305 4.1900001
2.0804925 -1.0652226 4.1634388
2.1088469 -1.032685 4.1637278
-0.11604857 -0.95166653 4.1505194
-0.092678495 -0.97029883 4.1899996
1.9463403 -0.94141418 4.1900015
2.0780203 -0.9612087 4.1824055
2.1227255 -0.95021129 4.1722121
-0.11750865 -0.85509348 4.180728
-0.095504068 -0.84851688 4.1900001
1.9623227 -0.89463639 4.1900001
2.0749681 -0.86916864 4.1900015
2.1298614 -0.84607971 4.1731782
-0.12061038 -0.73870438 4.1607404
-0.093667448 -0.71995372 4.1900001
1.9671592 -0.71169806 4.1807275
2.0644543 -0.75671172 4.1717863
2.1398358 -0.75929272 4.1900015
-1.5280651 -0.60608351 4.1900001
-0.12641488 -0.6492219 4.1586742
-0.095504068 -0.69791436 4.1900001
1.970944 -0.69209951 4.142643
2.0219109 -0.68322146 4.1900001
2.1192167 -0.69352525 4.1594
-1.4588342 -0.51639169 4.1479998
-0.14362788 -0.54970562 4.1642032
-1.5256495 -0.41708818 4.1594005
-1.4514092 -0.47751364 4.1389999
-0.152477 -0.43484285 4.1660028
-1.6396543 -0.32420439 4.1681457
-1.5440503 -0.32802945 4.1730032
-1.4624003 -0.35235918 4.1637297
-0.2031973 -0.30479595 4.1389999
-0.15158972 -0.34535715 4.1684265
1.4736967 -0.34251952 4.170166
-1.6253042 -0.28235972 4.1553202
-1.5496666 -0.28278539 4.1471996
-1.491787 -0.2870419 4.1644998
-0.2031973 -0.29391038 4.1389999
-0.16408835 -0.25935456 4.1616702
1.4674664 -0.22162268 4.1703844
-0.16127239 -0.15864712 4.1637745
1.4599622 -0.16837807 4.1517496
-0.20575857 -0.041407853 4.1389999
-0.17831773 -0.054831654 4.161746
1.4659234 -0.021771139 4.1389999
1.5493644 -0.043858692 4.1743073
1.6732268 -0.0073209186 4.1754289
1.7786821 -0.018287266 4.1750002
1.8491465 -0.033807512 4.1657763
1.9720924 -0.024158238 4.1720819
2.0199625 -0.020732444 4.184
2.1234424 -0.022573363 4.1708755
-0.2031973 0.0036285231 4.1389999
-0.15955563 0.050113503 4.1621852
0.0036732333 0.095504068 4.1900001
0.13958287 0.095504068 4.1900001
0.42389113 0.086688302 4.1900001
0.57112414 0.084375255 4.169137
0.62819749 0.066762581 4.1831088
0.77291137 0.092190258 4.1644998
0.85721332 0.072497122 4.1682529
0.95865536 0.066472948 4.1583476
1.0377299 0.051785622 4.1680326
1.1618066 0.05363401 4.1628032
1.2409589 0.074258789 4.1607242
1.3458179 0.055190448 4.1636233
1.4465474 0.032180041 4.1639819
1.564038 0.039094768 4.1587658
1.6546631 0.026455341 4.1687064
1.7512747 0.015639167 4.1622524
1.8202198 0.028368453 4.1436362
1.9811738 0.0072570457 4.1389999
2.0524671 0.010492334 4.1560001
2.1163809 0.0093605546 4.1716404
-1.5510635 0.16472542 4.1772518
-1.4372424 0.15625563 4.1682281
-1.3639977 0.15648109 4.1640701
-1.2456887 0.16103867 4.1615601
-1.1457006 0.17128387 4.1616702
-1.0527807 0.17324446 4.1567116
-0.94622117 0.17866093 4.1744189
-0.84269893 0.18193853 4.1694503
-0.74778533 0.17456682 4.1685295
-0.65826941 0.18030672 4.1631126
-0.59507781 0.19231173 4.1389999
-0.13928019 0.13995761 4.1718907
-0.050593615 0.13556366 4.1704412
0.042862896 0.13773118 4.1737261
0.14126484 0.13900118 4.1818061
0.25589496 0.12885772 4.168366
0.34788781 0.13620315 4.1659203
0.44764441 0.12224479 4.1803188
0.53384936 0.11494356 4.1662006
0.63132316 0.11178032 4.1545219
0.76585144 0.10950398 4.1645002
0.8877787 0.10522717 4.1389999
-1.0260347 0.20933786 4.1389999
-0.98381132 0.20780189 4.1441002
-0.83879369 0.20440678 4.1389999
-0.78376102 0.2056163 4.1389999
-0.62168694 0.20561633 4.1389999
-0.030122267 -1.7056735 4.2950001
0.93303722 -1.7079325 4.2949996
1.0368649 -1.7089678 4.2949991
1.1527997 -1.7076542 4.26125
1.2627177 -1.7119055 4.288249
1.346917 -1.7136563 4.2949982
1.4476212 -1.7129731 4.2937984
1.5490263 -1.7074157 4.2784986
1.6613201 -1.7156646 4.2872844
1.7435011 -1.7152452 4.2894125
1.8487543 -1.7176539 4.2949986
1.9527602 -1.7170296 4.2912745
2.0477662 -1.7120125 4.2909989
-0.019060539 -1.6312777 4.253705
0 -1.634133 4.2950001
0.89312518 -1.6808224 4.2950001
0.93425363 -1.6729314 4.2614536
1.0612915 -1.646547 4.2901487
1.1596129 -1.6547142 4.265039
1.2560432 -1.6545746 4.2886033
1.3492785 -1.6480509 4.2922492
1.4368305 -1.6525534 4.2675433
1.5549835 -1.6505953 4.2608361
1.6522793 -1.6456394 4.2499504
1.750507 -1.6463089 4.2499475
1.849821 -1.6475834 4.2497239
1.9476748 -1.6406751 4.2511501
2.03754 -1.6558913 4.2648063
-0.036291283 -1.554653 4.2706985
1.0610569 -1.5671109 4.2949991
1.1539202 -1.5446905 4.2906656
1.2528615 -1.5553735 4.2886963
1.35541 -1.5441353 4.2712712
1.4511254 -1.5538819 4.2552304
1.5517234 -1.5499392 4.2580605
1.6495429 -1.5454668 4.2553649
1.7452877 -1.558828 4.2456222
1.8505602 -1.5536205 4.2513466
1.9464976 -1.5470792 4.2493958
2.025475 -1.5479413 4.247611
-0.050931621 -1.4498893 4.2655435
0.9752084 -1.4031956 4.2950001
1.1620948 -1.4853578 4.2949982
1.2647171 -1.4748746 4.2949986
1.3553343 -1.4648329 4.2806549
1.4455153 -1.4485524 4.2616019
1.5515975 -1.4526291 4.2570295
1.6459733 -1.4499274 4.2492819
1.7464993 -1.4383351 4.2545824
1.8527725 -1.4503472 4.2471843
1.9430228 -1.4489919 4.2486243
2.0337434 -1.4546273 4.2649446
-0.056674708 -1.344887 4.2585125
0.9752084 -1.3906448 4.2950001
1.1839725 -1.3182677 4.2949991
1.2604841 -1.3579384 4.2949986
1.3829478 -1.3744495 4.2781234
1.4549373 -1.3499606 4.2807436
1.5523781 -1.3416513 4.2530437
1.6440187 -1.3507711 4.241364
1.7601032 -1.3497304 4.260725
1.8531033 -1.3675058 4.24261
1.9496185 -1.3489944 4.2409983
2.033886 -1.3553096 4.2409978
2.1106479 -1.381359 4.2410011
-0.050603416 -1.2479796 4.2825375
1.3856242 -1.253497 4.2949991
1.4497823 -1.2565452 4.2903614
1.5480481 -1.2515925 4.2598286
1.6443675 -1.2475737 4.2521896
1.7503361 -1.2486305 4.2419028
1.851908 -1.2485019 4.2413392
1.9487946 -1.2507792 4.2410054
2.0233395 -1.2505258 4.2409978
-0.064550489 -1.1447947 4.278564
1.459339 -1.1721693 4.2887235
1.5490557 -1.1546839 4.276
1.6477233 -1.1478467 4.2589231
1.7512667 -1.1488773 4.2454405
1.8513716 -1.1483949 4.2433672
1.9471025 -1.1407814 4.244338
2.0423398 -1.1462032 4.2573986
-0.065252446 -1.049732 4.2745991
1.566147 -1.0594167 4.2950048
1.6515921 -1.0567502 4.2885089
1.7439855 -1.046533 4.2629852
1.851118 -1.0479131 4.2728872
1.9499974 -1.0499718 4.2577314
2.0485048 -1.047965 4.2410078
2.1149099 -1.0458214 4.2409992
-0.10410241 -0.90717822 4.2410002
-0.083236106 -0.96664143 4.2696862
1.6726989 -0.95661014 4.2949986
1.7689632 -0.94703734 4.2740717
1.8602939 -0.94919604 4.2813449
1.9360168 -0.94590998 4.2589989
2.0466309 -0.95275664 4.2436404
2.1232474 -0.93531388 4.2409992
-0.10782035 -0.8501696 4.2409997
-0.089609124 -0.85432106 4.285356
1.7707188 -0.85547227 4.2950025
1.8547509 -0.85708928 4.2950034
1.9482459 -0.85038817 4.2661843
2.0564733 -0.8514148 4.2737122
2.1270092 -0.85682034 4.2470946
-0.10596138 -0.79006296 4.2410002
-0.086608507 -0.74272525 4.2582793
1.7699786 -0.76870883 4.2949986
1.8491627 -0.75636107 4.2871852
1.960034 -0.75816214 4.2846541
2.0448668 -0.76255113 4.2483187
2.1345332 -0.74257416 4.2439575
-0.10872108 -0.63115966 4.2574339
-0.092943884 -0.64662176 4.2729993
1.6321256 -0.66671264 4.2544994
1.8317683 -0.69297999 4.2523685
1.9705099 -0.69897336 4.2410002
2.0643227 -0.68304157 4.2710004
2.1452534 -0.67294776 4.2410002
-1.7395608 -0.57985359 4.2950001
-1.4834594 -0.54281974 4.2410002
-0.11550459 -0.551907 4.2652988
-0.094669975 -0.57124728 4.2950001
1.5324702 -0.50454795 4.2950001
1.9617958 -0.517263 4.2703466
2.0434949 -0.51462406 4.2864733
2.1675632 -0.53108567 4.2901983
2.208966 -0.54571509 4.2949996
-1.5738884 -0.4066506 4.2950001
-0.12485009 -0.45721 4.2708912
1.5324702 -0.49701738 4.2950001
1.9789095 -0.47118279 4.2856522
2.0540855 -0.45696634 4.2819948
2.1434648 -0.4476279 4.2616897
2.2118349 -0.47872892 4.2950001
-1.7049204 -0.36899778 4.2950001
-1.6473299 -0.36177295 4.2766385
-1.553436 -0.35685873 4.2661152
-1.460156 -0.32593486 4.2799063
-0.1189387 -0.35077885 4.2582326
-0.095619775 -0.32720754 4.2851815
1.4903812 -0.35107103 4.2534623
1.5111337 -0.32632455 4.2950001
1.9880695 -0.39535472 4.2950001
2.0683093 -0.35177284 4.2950034
2.1462069 -0.35078898 4.2788286
2.2139866 -0.33887547 4.2949986
-1.5129192 -0.26381561 4.2916245
-1.4545338 -0.28725663 4.2826562
-1.3914915 -0.27528611 4.2753639
-0.13010968 -0.24684203 4.2670674
-0.095182031 -0.28678545 4.2860003
1.4898782 -0.2424373 4.2564297
1.5049498 -0.27126548 4.2662005
2.0693212 -0.27136466 4.2949986
2.1356006 -0.26493901 4.2950034
2.2150619 -0.26859021 4.2949991
-0.13754147 -0.14473498 4.2652984
1.4925334 -0.18428622 4.2734003
1.8926822 -0.11546869 4.2950001
1.9219681 -0.11212177 4.2950001
2.0520794 -0.10542793 4.2950001
2.1298211 -0.14861795 4.2949986
2.2139864 -0.14684603 4.2949996
-0.14459844 -0.052955762 4.2657108
0.63915682 -0.014119813 4.2950001
1.0495781 -0.0097518666 4.2787995
1.1484115 -0.0075305668 4.2950001
1.2354834 -0.021179721 4.2949991
1.3629053 -0.018969931 4.2711754
1.4403734 -0.014363627 4.2900901
1.5801623 -0.031920675 4.2462249
1.6394643 -0.019446922 4.2625995
1.7478811 -0.037645254 4.2699089
1.8610065 -0.060751289 4.2779479
1.9290761 -0.062401243 4.2626004
2.0465138 -0.051942978 4.2707782
2.1324606 -0.049111761 4.2705116
-1.6125456 0.085848466 4.2949996
-1.5927148 0.097897358 4.2950001
-1.4256672 0.08617463 4.2810636
-1.3803599 0.084644318 4.2879558
-1.2592781 0.096223898 4.2950001
-1.182299 0.097897366 4.2950001
-0.12859142 0.043884054 4.2532711
-0.055357687 0.082389988 4.285181
0.032687802 0.086676039 4.262599
0.13577908 0.087995678 4.2583561
0.24820009 0.081631675 4.2705307
0.37997901 0.071592093 4.2839217
0.42377737 0.068440825 4.2700758
0.56623882 0.06481804 4.2739253
0.64821357 0.036811482 4.2574339
0.75757295 0.081725806 4.2715983
0.84393954 0.047082987 4.2596192
0.95411974 0.037393078 4.2686915
1.0539203 0.024306167 4.2578177
1.1513433 0.031246342 4.2541533
1.2534455 0.03580118 4.2726088
1.3371158 0.032241844 4.2538562
1.4420779 0.02123666 4.2749987
1.5850197 0.058431752 4.2460618
1.642866 0.036531001 4.2465854
1.8143564 0 4.2410002
2.1068344 0.0024786289 4.2410002
-1.6115413 0.10919322 4.2950001
-1.54862 0.13802592 4.2620602
-1.4579407 0.12271079 4.2564273
-1.3582844 0.13191919 4.2765608
-1.2473429 0.12764952 4.265974
-1.1587305 0.13453759 4.27175
-1.0414721 0.15429066 4.2679992
-0.93979686 0.14850812 4.2636437
-0.85412371 0.1539263 4.2638445
-0.74725199 0.13976917 4.2630901
-0.6628933 0.15462342 4.269722
-0.11153831 0.10410242 4.2410002
-0.061281964 0.11051265 4.2409992
0.063235648 0.11146627 4.2489991
0.1572178 0.12083152 4.245234
0.23520973 0.11376089 4.2448568
0.34081897 0.10916667 4.2525725
0.45358908 0.10410241 4.2410002
0.50935823 0.10410241 4.2410002
0.79563987 0.10410241 4.2410002
-0.014077378 -1.7174401 4.3489995
0.0062388373 -1.7198398 4.3489995
0.89520389 -1.7225431 4.3489995
0.94219446 -1.7271181 4.3489995
1.0492014 -1.7203851 4.348999
1.1260962 -1.7233053 4.348999
1.2505405 -1.7004299 4.349
1.388642 -1.7131388 4.3489995
1.4798424 -1.7320204 4.3489995
1.8796232 -1.7538067 4.349
2.0554609 -1.7428263 4.348999
-0.007625246 -1.6470531 4.349
0 -1.6422874 4.3489995
0.89596641 -1.688992 4.349
0.95776653 -1.6553876 4.3489995
1.0469255 -1.643447 4.3489995
1.1490222 -1.6296405 4.3489995
1.2540599 -1.6664095 4.3489995
1.3548973 -1.6187302 4.3489995
-0.024928687 -1.5379536 4.3489995
0 -1.5609969 4.349
0.98222709 -1.5341041 4.3489995
1.0641919 -1.5625486 4.3489995
1.1434453 -1.555095 4.3489995
1.2447175 -1.5527772 4.348999
1.3611064 -1.5860513 4.3489995
-0.02696733 -1.4454492 4.348999
0 -1.4640473 4.349
0.97317207 -1.415913 4.3489995
1.0103452 -1.4106706 4.349
1.1637702 -1.4594464 4.3489995
1.2475922 -1.4484913 4.3489995
1.3505399 -1.4445482 4.3489995
-0.030924609 -1.3464209 4.3489995
0 -1.3344182 4.349
0.98482996 -1.3895545 4.3489995
1.0510131 -1.357294 4.349
1.1860191 -1.3244467 4.3489995
1.2432824 -1.3639083 4.348999
1.352978 -1.3357128 4.3489995
1.4140259 -1.3514987 4.348999
1.5021735 -1.3496686 4.349
-0.03660119 -1.2459654 4.349
1.193351 -1.2962919 4.349
1.2898399 -1.2182797 4.3489995
1.376639 -1.250823 4.3489995
1.4437135 -1.2278765 4.3489995
1.5092123 -1.2452614 4.3489995
-0.035480738 -1.1525016 4.348999
1.4432968 -1.1622878 4.3489995
1.528317 -1.1304972 4.3489995
-0.047058649 -1.0457479 4.3489995
1.5508173 -1.0575427 4.3489995
1.6411498 -1.013912 4.3489995
1.7283893 -1.0082271 4.3489995
-0.065694436 -0.96078122 4.3489995
1.5605067 -0.91464823 4.3489995
1.6519778 -0.9521234 4.3489995
1.7365828 -0.95459127 4.3489995
1.8758106 -0.9493432 4.349
-0.067038633 -0.84439039 4.3489995
1.5288619 -0.89977908 4.349
1.6812642 -0.86948419 4.3489995
1.7393675 -0.85126954 4.348999
1.8376844 -0.83353484 4.3489995
1.9270089 -0.83986652 4.3489995
-0.072308376 -0.76278764 4.3489995
1.5898638 -0.78158772 4.349
1.6718352 -0.76443088 4.3489995
1.7361482 -0.75560141 4.3489995
1.8224337 -0.73322761 4.3489995
1.9556946 -0.75707799 4.3489995
-1.7532201 -0.60767359 4.3489995
-0.082047634 -0.65028107 4.348999
1.6851794 -0.6862722 4.349
1.8414969 -0.69389743 4.349
-1.7416064 -0.58638138 4.3489995
-0.11183695 -0.50834978 4.349
-0.091185234 -0.56331503 4.3489995
1.5507845 -0.51756364 4.3489995
1.9647717 -0.51216239 4.349
2.043566 -0.53376722 4.349
2.1350689 -0.51089156 4.349
2.210845 -0.55283034 4.3489995
-1.7042426 -0.40413806 4.349
-1.6305317 -0.41176331 4.349
-0.11002143 -0.4738546 4.349
-0.08935836 -0.46204221 4.3489995
1.9627769 -0.4376311 4.3489995
2.0419321 -0.43409449 4.3489995
2.1243935 -0.48496565 4.349
-1.7065302 -0.39193764 4.349
-1.6438978 -0.39151689 4.3489995
-1.4246142 -0.33006433 4.3489995
-1.3860352 -0.3143948 4.3489995
-0.10675345 -0.38888758 4.349
-0.088730134 -0.35318756 4.3489995
1.517424 -0.32407296 4.349
1.8948737 -0.38507494 4.3489995
1.9560635 -0.37838718 4.3489995
2.0460463 -0.35590598 4.348999
2.1260982 -0.3547982 4.3489995
-1.5235242 -0.26307103 4.3489995
-1.4654337 -0.28074768 4.3489995
-1.3832197 -0.29052186 4.3489995
-0.11715151 -0.2485137 4.3489995
-0.09560886 -0.23579608 4.3489995
1.5191184 -0.26773086 4.3489995
2.0640669 -0.23900768 4.3489995
2.1497748 -0.23257007 4.3489995
2.2225933 -0.2526277 4.3489995
-0.1154185 -0.14280005 4.3489995
-0.097221889 -0.18300591 4.3489995
1.5097988 -0.1982564 4.349
1.8986864 -0.10675345 4.349
1.9434847 -0.13058233 4.3489995
2.050566 -0.15950514 4.3489995
2.1519804 -0.15280688 4.348999
2.2271369 -0.15589392 4.3489995
-0.12177289 -0.045058273 4.3489995
0.66666442 -0.018518457 4.349
0.75337434 -0.013725444 4.349
0.95642382 -0.0098038884 4.349
1.0751598 -0.017792244 4.349
1.1428337 -0.011437869 4.3489995
1.2703661 -0.030500982 4.3489995
1.3344182 -0.016636901 4.3489995
1.4542433 -0.025054384 4.3489995
1.5136113 -0.019063115 4.349
1.6693424 -0.031087542 4.3489995
1.7538068 -0.057882547 4.3489995
1.8643728 -0.077638879 4.3489995
1.9629565 -0.074073821 4.349
2.0251386 -0.060366534 4.3489995
2.1430259 -0.088850707 4.3489995
2.2284782 -0.077205621 4.3489995
-1.6254483 0.077946961 4.3489995
-1.5337638 0.088779666 4.3489995
-1.4687072 0.080912344 4.3489995
-1.3517218 0.083877712 4.3489995
-1.2611613 0.087962657 4.3489995
-1.171746 0.096586443 4.3489995
-0.1246952 0.00807379 4.3489995
-0.066085473 0.064249761 4.3489995
0.049217504 0.075905859 4.3489995
0.16379617 0.069946975 4.3489995
0.24864931 0.062991157 4.3489995
0.34228888 0.066509083 4.3489995
0.43654537 0.05528304 4.349
0.54974389 0.053739827 4.349
0.62036824 0.025054386 4.3489995
0.75767213 0.038819443 4.3489995
0.85004926 0.029837919 4.3489995
0.9556976 0.022093659 4.3489995
1.0065325 0.01143787 4.349
1.1272657 0.0095315576 4.3489995
1.2728295 0.012904263 4.3489995
1.3250334 0.024048857 4.3489995
1.4543425 0.016290301 4.3489995
-1.5493114 0.11021948 4.3489995
-1.3434299 0.11299227 4.3489995
-1.2505404 0.10827851 4.349
-1.1413468 0.11620876 4.348999
-1.0470734 0.1309001 4.349
-0.95107627 0.12362144 4.3489995
-0.85747111 0.12938319 4.3489995
-0.73832279 0.12233546 4.3489995
-0.66538572 0.13128689 4.3489995
0.35457397 0.10675345 4.349
0.026714243 -1.7320764 4.4347425
0.75023401 -1.7753255 4.4629998
0.84949088 -1.7389576 4.4285955
0.96156752 -1.7339108 4.4050002
1.0149879 -1.7178204 4.4049997
1.1430682 -1.7532195 4.4050002
2.0930505 -1.7763896 4.4050002
2.1007738 -1.7763896 4.4050002
0.01675728 -1.6433313 4.4383178
0.79229403 -1.6582747 4.4630003
0.86280638 -1.6655402 4.4487209
0.9494971 -1.6444061 4.4297714
1.0392025 -1.6458526 4.4144897
1.1816853 -1.637368 4.4050002
-0.011585149 -1.5570443 4.4050002
0.016343484 -1.5492984 4.4516058
0.87306052 -1.5605537 4.4630008
0.96186572 -1.548385 4.4404187
1.0468636 -1.5402687 4.4180751
1.1061673 -1.524949 4.4050002
1.2511963 -1.5246059 4.4050002
-0.014288351 -1.4354004 4.4049997
0.012738577 -1.4506918 4.4495106
0.96845722 -1.4608842 4.4361014
1.0577461 -1.4520881 4.4165192
1.1460131 -1.4497414 4.4090886
1.2499088 -1.4625373 4.4049993
1.341976 -1.4290434 4.4114437
-0.017553259 -1.3579203 4.4049997
0.0066830381 -1.3529954 4.4326181
0.94481748 -1.3628062 4.4600987
1.0603073 -1.3593196 4.4328322
1.1517981 -1.3538033 4.429256
1.2628975 -1.340935 4.4188089
1.3474892 -1.3522636 4.4096761
1.4056648 -1.3863564 4.4050002
-0.017400606 -1.2474073 4.4136992
0.007079876 -1.2640966 4.4491897
1.0698957 -1.2544122 4.4541774
1.1533111 -1.2528689 4.4590931
1.2492487 -1.2522107 4.4175758
1.3495222 -1.2484841 4.4175987
1.4079403 -1.2309489 4.4122505
-0.015277539 -1.1443945 4.4348779
0 -1.1972443 4.4629998
1.0816345 -1.1672059 4.4629989
1.1653295 -1.1521484 4.4417839
1.2493076 -1.153808 4.4442873
1.3530871 -1.149613 4.460722
1.4383156 -1.1412659 4.4399657
1.5195878 -1.1299223 4.4239378
-0.020942569 -1.0534819 4.4197836
1.0485671 -1.0916052 4.4629998
1.1752594 -1.0752097 4.4629984
1.2422732 -1.0677865 4.4629984
1.3707013 -1.0759549 4.4629984
1.4456214 -1.0616847 4.4562097
1.5424334 -1.0437018 4.4457836
1.6200478 -1.0135695 4.440999
-0.03976725 -0.94371355 4.4196835
1.2556881 -0.97153825 4.4629989
1.3420091 -0.95857793 4.4629998
1.4716996 -0.94708049 4.4501882
1.5489011 -0.94446647 4.4258351
1.6373643 -0.94827861 4.4127336
1.7644054 -0.94811815 4.4049993
-0.028773226 -0.85458857 4.422399
1.2559327 -0.80598801 4.4629998
1.3889599 -0.88032669 4.4629998
1.4625872 -0.84404659 4.4629998
1.5523678 -0.8484171 4.4581733
1.6520507 -0.85443181 4.4346333
1.7482597 -0.83687896 4.4124827
-0.044265199 -0.74272454 4.4221025
1.2573556 -0.78251278 4.4629998
1.486774 -0.79816288 4.4630003
1.5760604 -0.7828545 4.4440598
1.6627473 -0.763363 4.4314675
1.7361066 -0.76093632 4.4333239
1.8325559 -0.73310381 4.4248037
1.9740627 -0.74426633 4.436636
-1.8154294 -0.65172124 4.4629998
-1.751218 -0.6273858 4.4406915
-0.055180419 -0.65882611 4.4213114
1.1698563 -0.63774776 4.4629998
-1.8148704 -0.56173223 4.4630008
-1.7780763 -0.558218 4.4412489
-0.10040464 -0.52519345 4.4050002
-0.072956808 -0.54732466 4.4301686
1.5586678 -0.53330761 4.4276948
1.7628499 -0.52030253 4.4629984
1.8531282 -0.52264249 4.4584818
1.9482697 -0.52595437 4.4415674
2.2438741 -0.55842793 4.4436665
-1.7406558 -0.42777359 4.4629998
-1.6575279 -0.41828132 4.4176083
-0.10040464 -0.42478883 4.4050002
-0.07436119 -0.44261295 4.4310989
1.5625697 -0.43979889 4.4478679
1.6980523 -0.47342014 4.4629998
1.7559592 -0.45397776 4.4600811
1.8523816 -0.46087447 4.4510784
1.9389845 -0.45408899 4.4344258
2.0544333 -0.44486976 4.4050002
-1.4262607 -0.33725661 4.4050002
-0.065472014 -0.35387939 4.4344597
1.5422217 -0.3498356 4.4381423
1.6829512 -0.33131495 4.4419098
1.7477977 -0.37951866 4.4629993
1.8588604 -0.34855598 4.4489398
1.9478965 -0.34288833 4.4356089
2.0313411 -0.3314704 4.4083138
-1.5425065 -0.27929783 4.4243336
-1.4056648 -0.28962874 4.4050002
-0.1023355 -0.26259673 4.4050002
-0.072443731 -0.24316972 4.4307771
1.5364454 -0.24958657 4.4473839
1.6617396 -0.27011809 4.434
1.8465239 -0.25472835 4.4629989
1.9567544 -0.26748988 4.4613671
2.0387702 -0.25218207 4.4328308
2.1380641 -0.21147995 4.409143
2.2383471 -0.22566915 4.4049993
-0.10418517 -0.12581757 4.4127331
-0.080957115 -0.1657092 4.4414558
1.0368292 -0.1056392 4.4629998
1.4828613 -0.11346433 4.4629998
1.5323174 -0.18792884 4.4195004
1.674577 -0.10172664 4.4629998
1.7906054 -0.1021495 4.4243336
1.8711715 -0.1422323 4.4503436
1.9499252 -0.15280572 4.4483771
2.0458071 -0.14502829 4.4331899
2.1250036 -0.16230145 4.4187078
2.2416728 -0.12475989 4.4202623
-1.611976 -0.0078251269 4.4630003
-1.5924132 -0.0078251259 4.4629998
-0.10570946 -0.047934096 4.4073191
-0.074645199 -0.037983198 4.440443
0.18936805 -0.010955176 4.4629998
0.20345327 -0.011737689 4.4629998
0.75308466 -0.019068455 4.436636
0.95906478 -0.027395565 4.4305587
1.0303248 -0.03653907 4.4499025
1.1543583 -0.041977741 4.4491291
1.2609071 -0.052909981 4.4421782
1.3471177 -0.04121444 4.4307766
1.4572883 -0.053352997 4.4412494
1.5385693 -0.041239344 4.4447708
1.6846508 -0.057560183 4.4339995
1.7524616 -0.058704395 4.4379535
1.8543935 -0.082052283 4.4303741
1.9787436 -0.086502455 4.4050002
2.036514 -0.076335289 4.4281993
2.1488059 -0.080830798 4.4146662
2.261061 -0.086707585 4.4381433
-1.7058775 0.062601008 4.4629998
-1.6331177 0.059113711 4.4459395
-1.5613931 0.068854406 4.4389501
-1.4392644 0.058163207 4.4475336
-1.3492311 0.066394784 4.4425282
-1.2557776 0.068200111 4.4214325
-1.1537104 0.079703413 4.4329987
-1.0525873 0.082750902 4.437479
-0.94945443 0.082178824 4.4441485
-0.88136572 0.083708234 4.4426994
-0.73093903 0.089860179 4.445941
-0.67476672 0.086076379 4.4630008
-0.10040464 0.0038617167 4.4050002
-0.052194308 0.035873413 4.4273715
0.052136146 0.051452804 4.4401059
0.13857821 0.039788168 4.4289556
0.25565794 0.029177144 4.4175406
0.3435452 0.044775698 4.425148
0.46847069 0.020163072 4.4372215
0.5331527 0.024520466 4.412457
0.6430397 0.010693985 4.4183846
0.74388629 0.028182851 4.4254699
0.83170331 0.024288177 4.4188089
0.93897009 0.0071371463 4.4206147
1.0335324 0.0028962875 4.4195004
1.1334138 0.0019308584 4.4050002
1.2975368 0 4.4050002
1.3242468 0.017314652 4.4069991
1.4674523 0.015446867 4.4050002
-1.6041509 0.10172664 4.4629998
-1.5793211 0.10327289 4.4178886
-1.3670477 0.10040464 4.4050002
-1.1252077 0.10571449 4.4049997
-1.0531379 0.10636999 4.4069328
-0.94292468 0.10692501 4.4068699
-0.85586476 0.11293648 4.4231238
-0.74857658 0.10791469 4.4289994
-0.67966223 0.10693985 4.4049997
0.36686307 0.10040464 4.4050002
0.069626026 -1.8138474 4.5820003
0.55433035 -1.8199583 4.5820007
0.65153527 -1.8151965 4.5700006
0.73696244 -1.8124809 4.5500002
0.80738008 -1.8076859 4.5369997
0.054727972 -1.7388619 4.5642233
0.56677508 -1.7540411 4.5820007
0.64292705 -1.7609161 4.5753341
0.74648798 -1.7561204 4.556859
0.80993205 -1.766688 4.5438194
0.047538757 -1.6608925 4.5527325
0.53022903 -1.6951261 4.5819998
0.76514584 -1.6538107 4.5496531
0.83749259 -1.6446979 4.5363379
0.93061626 -1.6085093 4.5219998
0.045669027 -1.5471187 4.5553346
0.7781117 -1.5812501 4.5519996
0.85725272 -1.5492678 4.5597792
0.93285036 -1.5470111 4.54354
0.03515226 -1.4539459 4.5464911
0.77445567 -1.4123374 4.5820003
0.88810933 -1.4499725 4.5690598
0.94491917 -1.4507167 4.5519981
1.0065664 -1.4176493 4.552
0.02477424 -1.3434176 4.5481553
0.77927589 -1.3978764 4.5820003
0.88371515 -1.3679327 4.5820007
0.95538962 -1.3467885 4.5549746
1.0308601 -1.3463393 4.5427165
1.1651554 -1.3261402 4.5220008
-0.0079285726 -1.232893 4.5219998
0.015726058 -1.2526976 4.5537658
0.88830572 -1.2194118 4.5820003
0.95486593 -1.2586457 4.5689888
1.0451308 -1.2496077 4.5511193
1.1594293 -1.2150477 4.5369997
1.3716429 -1.2130716 4.5219998
0.010329137 -1.1544375 4.5634294
0.88894421 -1.1862007 4.5601821
0.95530993 -1.1690805 4.5800004
1.0530623 -1.144182 4.5403905
1.1416212 -1.1460139 4.5290613
1.3384329 -1.1445568 4.5220022
1.4350717 -1.1575717 4.5219998
-0.0079285726 -1.0108931 4.5219998
0.0033474059 -1.0439382 4.5570006
1.0743872 -1.0569524 4.5673857
1.1435058 -1.0565741 4.5472889
1.2462994 -1.0428981 4.5343552
1.3474725 -1.0493611 4.5381331
1.4580971 -1.0347328 4.5220022
1.5098269 -1.0363778 4.5219998
-0.011334048 -0.97217453 4.5262856
0.0040025413 -0.95102686 4.5574555
1.0721443 -0.94605476 4.5737815
1.1519092 -0.94064385 4.5701404
1.2432808 -0.95153201 4.5589204
1.3536246 -0.95155263 4.540484
1.44115 -0.95123124 4.5220013
1.5198083 -0.9132725 4.5219998
-0.013239339 -0.82741064 4.5334291
0.0045133848 -0.86437666 4.5506968
1.0663491 -0.88826734 4.5820003
1.1682606 -0.87915039 4.55446
1.2613746 -0.85279697 4.5587358
1.3536679 -0.86046726 4.5619988
1.451625 -0.84568417 4.5403728
1.5414621 -0.85942048 4.5220017
1.6087795 -0.8764677 4.5219998
-1.8313991 -0.72136855 4.5638194
-1.7794807 -0.7350902 4.5819998
-1.6589741 -0.706972 4.5819998
-0.012936532 -0.75409973 4.5495005
0.0040168869 -0.72303957 4.5820003
1.1972145 -0.75321448 4.5220003
1.2282578 -0.75947422 4.5609198
1.3657807 -0.77186644 4.5498066
1.4620129 -0.77929962 4.5484014
1.5474685 -0.78044331 4.5434294
1.6407919 -0.77078986 4.5319996
1.7196878 -0.74640989 4.5553331
1.855286 -0.75321442 4.5219998
2.027842 -0.74098665 4.5444999
-1.8297487 -0.68610424 4.5286674
-1.7505829 -0.65053612 4.5482082
-1.6749868 -0.65938079 4.5435114
-0.027615907 -0.65056652 4.560401
0.0034430458 -0.68631381 4.5820003
1.1791561 -0.65158987 4.5595002
1.2082795 -0.67644364 4.5820003
-1.8140477 -0.54836643 4.5379996
-1.7803646 -0.55455464 4.5565667
-1.692448 -0.52889007 4.5820003
-0.042417236 -0.55194229 4.5613112
1.4942816 -0.51014459 4.5819998
1.5569782 -0.53058469 4.552835
1.6054587 -0.51247823 4.5669999
1.7556798 -0.5353899 4.5310926
1.8354646 -0.53121436 4.5219998
1.9631147 -0.54548585 4.5219998
2.0059288 -0.57085723 4.5219998
2.2834289 -0.56292868 4.5219998
2.3151433 -0.57085723 4.5219998
-1.7461469 -0.4576171 4.5577455
-1.6881294 -0.45278358 4.546
-0.037775628 -0.44825691 4.5664167
0.0040168865 -0.44185755 4.5820003
1.5527465 -0.46498936 4.5478082
1.605536 -0.49950007 4.5219998
1.7432657 -0.44256955 4.5473862
1.8535833 -0.42461914 4.531312
1.9253502 -0.44877315 4.5339999
-0.037494633 -0.3445462 4.5620008
1.5598943 -0.35476318 4.5441065
1.7566694 -0.34341672 4.5315347
1.8450135 -0.34793362 4.5337172
1.9142333 -0.34989136 4.5220008
-0.033697713 -0.25236651 4.5496941
1.5495689 -0.25789988 4.5413561
1.6927502 -0.25767863 4.5219998
1.7534255 -0.25240865 4.5440521
1.8475124 -0.25063828 4.5359192
1.9438127 -0.2461057 4.5225477
2.0197401 -0.23069592 4.5220013
-0.054119792 -0.14323731 4.5594039
0.94074786 -0.11271434 4.5519996
1.0689207 -0.13628827 4.5567369
1.1630366 -0.10592287 4.5477138
1.2883931 -0.10307145 4.5219998
1.3496737 -0.10443905 4.5819998
1.460608 -0.11951999 4.5593781
1.550612 -0.13654318 4.5447598
1.6107714 -0.10845593 4.5819998
1.7680672 -0.14505775 4.5539637
1.8522674 -0.14889264 4.5400853
1.9300131 -0.17145537 4.5220017
2.0283933 -0.18235718 4.5219998
2.2953219 -0.10307145 4.5219998
-1.5264168 -0.052219525 4.5820003
-1.4292493 -0.037610907 4.5738649
-1.3739754 -0.030452497 4.5323458
-0.036982439 -0.060051858 4.5577316
0.030694436 -0.018125724 4.5560012
0.17438015 -0.025991619 4.5820003
0.22432947 -0.018332852 4.5691433
0.37539631 -0.021179946 4.5820007
0.42177305 -0.0080337739 4.5820003
0.73584753 -0.022896556 4.5388761
0.85559678 -0.052219521 4.5819998
0.93424076 -0.060388193 4.5433574
1.040171 -0.065086007 4.5550003
1.1670818 -0.060488857 4.5471177
1.2425512 -0.04650002 4.5483427
1.3590114 -0.083276786 4.5373502
1.4398736 -0.074351378 4.5335808
1.5407015 -0.075018197 4.5344548
1.6121103 -0.083908305 4.5820003
1.7498195 -0.077113688 4.5348592
1.8493106 -0.095458478 4.5369997
2.2913575 -0.095142879 4.5219998
-1.7141831 0.043686051 4.5369997
-1.6387917 0.033588052 4.5261116
-1.5830245 0.041180063 4.5329094
-1.4380484 0.020834558 4.552001
-1.3588427 0.025480228 4.5362878
-1.2503231 0.048944116 4.5567379
-1.1466273 0.05248047 4.5624356
-1.0447091 0.049368676 4.5556998
-0.95250511 0.05288351 4.5525279
-0.84905094 0.065871246 4.5467844
-0.75306457 0.071395002 4.5602989
-0.68109065 0.056665707 4.5473857
-0.022929944 0.014197578 4.5559134
0.052337963 0.024774678 4.551363
0.14534175 0.0058044903 4.5601816
0.23050448 0.0088913478 4.5686669
0.36902136 0.0057378807 4.5320001
0.42012993 0.0086684795 4.5601816
0.95142871 0 4.5219998
1.1813573 0 4.5219998
-0.84136152 0.10633617 4.5219998
0.078999065 -1.8194216 4.645
0.17672986 -1.8340815 4.645
0.28179049 -1.8357105 4.645
0.33572334 -1.838334 4.6449995
0.44751874 -1.8396306 4.6450005
0.54173684 -1.8340524 4.6450014
0.62995642 -1.8267514 4.644999
0.71669251 -1.8568851 4.645
0.81442332 -1.8080196 4.645
0.083478384 -1.7555909 4.6450009
0.10963391 -1.7447455 4.6450005
0.37870684 -1.7632264 4.645
0.48050979 -1.7493812 4.6449986
0.55171335 -1.7455812 4.6449957
0.65702933 -1.7423173 4.6449966
0.7327916 -1.7519572 4.6450005
0.81306601 -1.7917312 4.6450005
0.073298089 -1.6455632 4.645
0.38277897 -1.6376694 4.6449986
0.48939443 -1.6828948 4.6450005
0.55920547 -1.6637914 4.6449966
0.6648109 -1.6605184 4.6450014
0.73128074 -1.645672 4.6449966
0.85310841 -1.6105222 4.645
0.070366167 -1.5633671 4.6449986
0.64445007 -1.567162 4.6450014
0.75786602 -1.5526389 4.6449986
0.84091645 -1.5453438 4.6449971
0.055080727 -1.4428149 4.645
0.68004346 -1.4008081 4.645
0.78065479 -1.4544402 4.645
0.84623218 -1.4506721 4.6449952
0.047055569 -1.3523953 4.644999
0.68004346 -1.3926638 4.645
0.73352396 -1.3546574 4.645
0.86005348 -1.3482609 4.6449981
0.94386441 -1.3363478 4.6450005
1.0424618 -1.3030773 4.645
0.028097605 -1.2493253 4.644999
0.75944972 -1.292897 4.645
0.85441238 -1.2590618 4.6449966
0.94908988 -1.2501971 4.6449986
1.032644 -1.2462908 4.6449981
0.032322425 -1.1496096 4.644999
0.88989317 -1.1760275 4.645
0.94560903 -1.1410713 4.6449957
1.0222052 -1.1418633 4.645
0.030384259 -1.0587503 4.6450014
0.87448716 -1.0821652 4.6449986
0.95171189 -1.0607351 4.6449971
1.0360787 -1.0506064 4.6449952
1.1586628 -1.027191 4.6450014
1.2173691 -1.0250098 4.644999
1.3492279 -1.057393 4.6450005
0.016288465 -0.95287532 4.6450005
0.96780628 -0.92979991 4.6450005
1.0320051 -0.95005995 4.6449971
1.1466751 -0.9542051 4.6450009
1.2611345 -0.9288497 4.644999
1.3373992 -0.95927435 4.645
0.012668805 -0.84971505 4.644999
0.96101952 -0.84881002 4.645
1.0644159 -0.86983967 4.6450009
1.1444829 -0.84765476 4.6449957
1.2542117 -0.85863495 4.6450009
1.366292 -0.84777588 4.644999
1.4218473 -0.84598225 4.6449986
-1.8377638 -0.7358138 4.6449986
-1.7792174 -0.73496729 4.645
0.0066171894 -0.76301283 4.6449995
1.1651808 -0.76185578 4.6449966
1.2201194 -0.73961008 4.6450005
1.363789 -0.78480792 4.6450005
1.4717792 -0.78591847 4.645
1.5618829 -0.77641684 4.644999
1.6044139 -0.76963007 4.645
1.7153791 -0.77370209 4.645
2.0808516 -0.74926937 4.645
2.1012123 -0.75741363 4.645
-1.7518831 -0.63903141 4.6449986
-0.011707334 -0.63677722 4.6449995
0.0040721167 -0.64543045 4.6449995
1.1804345 -0.66064119 4.6449995
1.2094187 -0.69225985 4.645
1.4293129 -0.60267329 4.645
-1.7700913 -0.53635597 4.6449995
-0.01855075 -0.55471277 4.644999
0.0032576935 -0.58801359 4.645
0.99359643 -0.53344727 4.645
1.050606 -0.55380785 4.645
1.1076156 -0.57416844 4.645
1.28901 -0.5819425 4.6450005
1.3193659 -0.57009625 4.6449986
1.4655007 -0.56225944 4.6450014
1.5396303 -0.53381747 4.644999
-1.766672 -0.4842687 4.6450005
-0.014931094 -0.45064756 4.6450005
0.0067868605 -0.44521809 4.6450005
1.3214678 -0.45739067 4.6449986
1.4903946 -0.49272615 4.6450005
1.542751 -0.46026552 4.6449995
1.8731736 -0.42350012 4.645
-0.017102888 -0.35508856 4.644999
1.5738733 -0.34991115 4.6449986
-0.012895036 -0.26129416 4.6450005
0.0032576935 -0.24921356 4.645
1.5569057 -0.26604494 4.644999
1.7477528 -0.22640967 4.644999
1.8462348 -0.23743568 4.6449986
-0.028504819 -0.15555483 4.644999
0 -0.10587503 4.645
0.94371307 -0.11605532 4.645
1.0638781 -0.12427496 4.6449986
1.1524088 -0.10994714 4.645
1.262356 -0.14252408 4.645
1.3661951 -0.10994714 4.645
1.4421109 -0.12681735 4.645
1.5754001 -0.14303309 4.644999
1.6174443 -0.13600869 4.644999
1.7684621 -0.16637504 4.6450009
1.8080196 -0.19138947 4.645
-1.5267532 -0.035194725 4.6449986
-1.4855082 -0.013030774 4.645
-0.71017712 -0.015474043 4.645
-0.69225985 -0.0081442334 4.645
0.029914403 -0.051684551 4.6450014
0.15226175 -0.032222837 4.6449986
0.23036547 -0.032576934 4.645
0.39295924 -0.037667073 4.6449995
0.4126412 -0.037463475 4.645
0.77327341 -0.051008623 4.644999
0.84620166 -0.056370851 4.6450009
0.92233443 -0.067189924 4.6449995
1.0665687 -0.067108497 4.6450009
1.1493549 -0.061081748 4.6449995
1.2751036 -0.047094911 4.6449986
1.3329395 -0.065153867 4.6450005
1.5296352 -0.088105798 4.6450005
1.6084859 -0.093658678 4.645
-1.6230295 0.025596162 4.645
-1.5188994 0 4.645
-1.3327458 0.016870197 4.645
-1.2483946 0.031025646 4.644999
-1.1545262 0.031273857 4.6449986
-1.0440907 0.019871924 4.6449986
-0.94985014 0.022803852 4.6449995
-0.84929073 0.031558901 4.644999
-0.74098223 0.031719659 4.6450009
-0.69225985 0.016288467 4.645
0.058490403 0.0029615394 4.6450005
0.18528129 0.016288467 4.645
0.21419333 0.01465962 4.645
0.14229703 -1.9000838 4.7740002
0.096054621 -1.852053 4.7080002
0.15194295 -1.8426274 4.7190037
0.2507205 -1.8445112 4.723773
0.35525286 -1.8377345 4.7160854
0.44884548 -1.8277379 4.7162538
0.51179099 -1.8213391 4.7080002
0.73879504 -1.8820702 4.7080002
0.08667428 -1.7004668 4.7080002
0.14104468 -1.7603111 4.7335019
0.28033498 -1.7534286 4.7512426
0.35354 -1.7539333 4.736074
0.44700852 -1.7476549 4.7159781
0.51839477 -1.788517 4.7080007
0.63221484 -1.7094198 4.7184215
0.092636012 -1.652773 4.7080002
0.13679519 -1.6370112 4.7652016
0.28578985 -1.693215 4.7740002
0.36170164 -1.6531051 4.738585
0.45239025 -1.648265 4.7396803
0.53802097 -1.6360548 4.7166395
0.64961541 -1.6477987 4.7151785
0.71553183 -1.6160438 4.7080002
0.08732146 -1.5492882 4.7177782
0.10869966 -1.5385361 4.7689242
0.25977147 -1.5730602 4.7740016
0.44872752 -1.5507965 4.7409997
0.55032438 -1.5701412 4.7399373
0.64312792 -1.5460037 4.7450843
0.72749811 -1.5253917 4.7197132
0.83509976 -1.5472962 4.7080002
0.082746938 -1.4477394 4.7104483
0.11235587 -1.476298 4.7457151
0.45853099 -1.492547 4.7657518
0.57572472 -1.4582636 4.7572389
0.64655745 -1.4450827 4.7144952
0.74350405 -1.4535491 4.7305946
0.84433711 -1.466977 4.7080002
0.06890551 -1.3516759 4.7334757
