# .PCD v0.7 - Point Cloud Data file format
VERSION 0.7
FIELDS x y z
SIZE 4 4 4
TYPE F F F
COUNT 1 1 1
WIDTH 1537
HEIGHT 1
VIEWPOINT 0 0 0 1 0 0 0
POINTS 1537
DATA ascii
-1.23929 0.4060131 3.3339486
1.4349741 0.40422896 3.3478005
1.4566854 0.40503189 3.342329
1.4843839 0.40653831 3.3353493
1.5130407 0.40654349 3.3281279
1.5379117 0.40564251 3.3218613
-1.2394896 0.43559808 3.3331583
1.4342719 0.43589824 3.3479774
1.4566857 0.43700814 3.342329
1.4849366 0.43591362 3.3352103
1.5130407 0.43482476 3.3281281
1.5379118 0.43386114 3.3218613
-1.2396878 0.4651573 3.3323669
1.434623 0.46634182 3.3478887
1.4566855 0.46543142 3.3423293
1.4849366 0.46426576 3.3352103
1.5130409 0.46310601 3.3281279
1.5379117 0.46560711 3.3218613
-1.239491 0.49579474 3.3331585
1.434623 0.49482065 3.3478887
1.4566857 0.49385467 3.3423295
1.4854889 0.49363512 3.3350711
1.5130405 0.49492243 3.3281276
1.5379117 0.49735305 3.3218613
-1.2394897 0.52530622 3.3331583
1.434623 0.52329957 3.3478889
1.4575435 0.52385193 3.342113
1.4844426 0.52528244 3.3353345
1.5130408 0.52673894 3.3281279
1.5379118 0.5255717 3.3218613
-1.2392901 0.55479544 3.3339491
1.4346231 0.55533838 3.3478887
1.455865 0.5555293 3.342536
1.4849366 0.55641001 3.3352106
1.5130405 0.55502021 3.3281279
1.5379118 0.55379021 3.3218613
-1.2396878 0.58553284 3.3323669
1.434623 0.58737707 3.3478889
1.4566858 0.58623046 3.3423293
1.4849366 0.58476216 3.3352103
1.5130405 0.58330142 3.3281279
1.5379117 0.58553624 3.3218615
-1.2394896 0.61502284 3.333158
1.4346231 0.61585593 3.3478887
1.4566857 0.61465377 3.3423293
1.4849365 0.61311424 3.3352103
1.5130404 0.61511785 3.3281276
1.5379118 0.61728209 3.3218617
-1.2394909 0.64453554 3.3331585
1.434623 0.64433491 3.3478887
1.4566857 0.64307708 3.3423293
1.4849366 0.64501035 3.3352101
1.5130405 0.64693433 3.3281279
1.5379117 0.64550078 3.3218613
-1.2392901 0.67523825 3.3339491
1.4346229 0.67281377 3.3478887
1.4572104 0.67442894 3.3421974
1.4849367 0.67690659 3.3352103
1.5130405 0.67521566 3.3281281
1.5379117 0.67371935 3.3218613
-1.2396878 0.70590854 3.3323669
1.4346231 0.70485252 3.3478889
1.4560859 0.70622021 3.3424807
1.4849367 0.70525855 3.3352101
1.5130405 0.70349687 3.3281281
1.5379117 0.70546538 3.3218613
-1.2394896 0.73543215 3.3331583
1.4346229 0.73689127 3.3478889
1.4566857 0.73545271 3.3423293
1.4849366 0.73361081 3.3352103
1.5135601 0.73468947 3.327997
1.5379117 0.73721123 3.3218613
-1.239491 0.76494485 3.3331583
1.434623 0.76537007 3.3478889
1.4566857 0.7638759 3.3423295
1.4854313 0.76472646 3.3350854
1.5124472 0.76632774 3.3282776
1.5379117 0.76542974 3.3218613
-1.2394896 0.79445612 3.3331583
1.434623 0.79384899 3.3478887
1.4575437 0.79385257 3.342113
1.4843838 0.79639894 3.3353496
1.5130408 0.79541111 3.3281281
1.5379118 0.79364848 3.3218617
-1.2394882 0.82514822 3.333158
1.434974 0.82427949 3.3478005
1.455865 0.82557023 3.3425362
1.4849367 0.825755 3.3352101
1.5130407 0.82369244 3.3281281
1.5379118 0.82539433 3.3218615
-1.2394896 0.85584128 3.3331583
1.4342722 0.85597497 3.3479776
1.4566857 0.85625172 3.3423293
1.4849367 0.85410714 3.3352101
1.5138533 0.85421628 3.3279231
1.5379118 0.85714042 3.3218617
-1.239491 0.88535416 3.3331583
1.434623 0.88640547 3.3478887
1.4566855 0.88467497 3.3423293
1.4856324 0.88437247 3.3350348
1.5121908 0.88578433 3.3283422
1.5379117 0.88535899 3.3218613
-1.2394896 0.91486537 3.3331583
1.434623 0.91488433 3.3478887
1.4572848 0.91389483 3.3421788
1.4842409 0.91598618 3.3353856
1.5130408 0.9156065 3.3281279
1.5379118 0.91357756 3.3218613
-1.2394884 0.9455573 3.333158
1.434623 0.94336319 3.3478887
1.4566863 0.94507313 3.3423293
1.4849366 0.94625151 3.3352103
1.5130404 0.94388783 3.3281281
1.5379118 0.94532359 3.3218615
-1.2394896 0.97625053 3.333158
1.434623 0.975402 3.3478887
1.456086 0.97625571 3.3424804
1.4849366 0.97460353 3.3352103
1.5138535 0.97440296 3.3279233
1.5379118 0.97706938 3.3218613
-1.2394909 1.0057633 3.3331583
1.434623 1.0074406 3.3478887
1.4566857 1.005474 3.3423297
1.4854888 1.0039477 3.3350711
1.5121908 1.0059887 3.3283417
1.5379118 1.0052881 3.3218613
-1.2394896 1.0352746 3.333158
1.434623 1.0359195 3.3478889
1.4566857 1.0338973 3.3423293
1.4844425 1.0356429 3.3353348
1.5130407 1.0358018 3.3281281
1.5379118 1.0335066 3.3218613
-1.2396876 1.0648481 3.3323669
1.434623 1.0643984 3.3478889
1.4575437 1.0638533 3.342113
1.4849366 1.066748 3.3352103
1.5130407 1.0640832 3.3281281
1.5379118 1.0652525 3.3218617
-1.2392901 1.0954171 3.3339486
1.434623 1.0928774 3.3478892
1.455865 1.0956111 3.3425362
1.4849366 1.0950999 3.3352101
1.5138903 1.0938874 3.3279138
1.5379118 1.0969986 3.3218613
-1.2394896 1.1249913 3.3331583
1.434623 1.1249161 3.3478887
1.4566857 1.126273 3.3423295
1.4849365 1.1234522 3.3352103
1.512319 1.1256428 3.3282061
1.5379118 1.1252172 3.3218617
-1.2394909 1.1545041 3.3331583
1.434623 1.1569549 3.3478887
1.4566857 1.1546963 3.3423293
1.4854312 1.1545507 3.3350856
1.5130407 1.1559975 3.3281279
1.5379118 1.1534358 3.3218613
-1.2396878 1.1852237 3.3323669
1.434623 1.1854337 3.3478889
1.4572847 1.1839018 3.3421781
1.4843838 1.1862594 3.3353496
1.5130408 1.1842786 3.3281279
1.5379118 1.1851817 3.3218615
-1.2392901 1.2158601 3.3339491
1.434623 1.2139126 3.3478887
1.4566863 1.2150944 3.342329
1.4849366 1.2155966 3.3352103
1.5138903 1.2140738 3.327914
1.5379118 1.2169275 3.3218617
-1.2394896 1.2454007 3.3331583
1.4349738 1.24433 3.3478005
1.4560859 1.2462915 3.3424807
1.4849366 1.2439487 3.3352103
1.5122281 1.245695 3.3283327
1.5379117 1.2451463 3.3218617
-1.239491 1.2749132 3.3331585
1.4342721 1.2760515 3.3479772
1.4566854 1.2754953 3.342329
1.4856324 1.2741897 3.3350346
1.5130405 1.276193 3.3281281
1.5379118 1.2733648 3.3218613
-1.2396879 1.3055992 3.3323669
1.434623 1.3064691 3.3478889
1.4566858 1.3039186 3.3423295
1.484241 1.3058516 3.3353856
1.5130408 1.3044741 3.3281279
1.5379117 1.3051107 3.3218613
-1.2394896 1.3351086 3.333158
1.434623 1.3349478 3.3478889
1.4575437 1.3338542 3.3421135
1.4849367 1.3360928 3.3352101
1.5138903 1.3342601 3.3279138
1.5379118 1.3368566 3.3218613
-1.2344304 1.35149 3.3377924
-1.2134016 1.3517729 3.338388
-1.1850177 1.3517729 3.3383882
-1.1566337 1.3517729 3.338388
-1.1263499 1.3517739 3.3375621
-1.0946702 1.351772 3.3392138
-1.0643861 1.3517729 3.338388
-1.0360023 1.3517729 3.338388
-1.0057535 1.3517739 3.3375623
-0.97400337 1.351772 3.3392141
-0.94375467 1.3517729 3.3383882
-0.91537076 1.3517729 3.3383882
-0.88515717 1.3517739 3.3375623
-0.85506439 1.3517729 3.3383882
-0.82494479 1.351772 3.3392138
-0.79473931 1.3517729 3.3383882
-0.76456076 1.3517739 3.3375621
-0.73443288 1.3517729 3.338388
-0.70427817 1.351772 3.3392138
-0.67410785 1.3517729 3.3383882
-0.645724 1.3517729 3.338388
-0.61558878 1.3517739 3.3375621
-0.58541751 1.3517729 3.3383882
-0.55521947 1.351772 3.3392138
-0.52509254 1.3517729 3.3383882
-0.49499238 1.3517739 3.3375623
-0.46478602 1.3517729 3.3383882
-0.43640214 1.3517729 3.338388
-0.40616074 1.351772 3.3392141
-0.37439597 1.3517739 3.3375623
-0.34415451 1.3517729 3.3383882
-0.31577069 1.3517729 3.3383882
-0.28549412 1.351772 3.3392141
-0.25379959 1.3517739 3.3375623
-0.22352305 1.3517729 3.338388
-0.19513917 1.3517729 3.338388
-0.16675529 1.3517729 3.3383882
-0.13482343 1.3517729 3.3383882
-0.10289156 1.3517729 3.338388
-0.074507684 1.3517729 3.3383882
-0.046123806 1.3517729 3.3383882
-0.017739924 1.3517729 3.3383882
0.01419194 1.3517729 3.3383882
0.046123803 1.3517729 3.338388
0.074507684 1.3517729 3.338388
0.10289156 1.3517729 3.3383882
0.13482343 1.3517729 3.3383882
0.16675529 1.3517729 3.338388
0.19513917 1.3517729 3.3383882
0.22352305 1.3517729 3.338388
0.25379959 1.3517739 3.3375623
0.28549412 1.351772 3.3392141
0.31577066 1.3517729 3.3383882
0.34415454 1.3517729 3.338388
0.374396 1.3517739 3.3375621
0.40616074 1.351772 3.3392141
0.43640214 1.3517729 3.3383882
0.46478602 1.3517729 3.338388
0.49499232 1.3517739 3.3375623
0.52509248 1.3517729 3.338388
0.55521947 1.351772 3.3392138
0.58541751 1.3517729 3.338388
0.61558872 1.3517739 3.3375621
0.645724 1.3517729 3.338388
0.67410779 1.3517729 3.3383882
0.70427811 1.351772 3.3392138
0.73443288 1.3517729 3.338388
0.76456076 1.3517739 3.3375623
0.79473937 1.3517729 3.338388
0.82494473 1.351772 3.3392138
0.85506439 1.3517729 3.338388
0.88515717 1.3517739 3.3375621
0.91537082 1.3517729 3.3383882
0.94375467 1.3517729 3.338388
0.97400349 1.351772 3.3392141
1.0057535 1.3517739 3.3375621
1.0360023 1.3517729 3.3383882
1.0643862 1.3517729 3.3383882
1.0946699 1.351772 3.3392138
1.12635 1.3517739 3.3375623
1.1566337 1.3517729 3.338388
1.1850177 1.3517729 3.3383882
1.2134016 1.3517729 3.3383882
1.2453405 1.3517804 3.3384039
1.2772831 1.3517917 3.3384278
1.3056674 1.3517919 3.3384275
1.3340517 1.3517919 3.3384278
1.3624359 1.3517919 3.3384275
1.3943683 1.3517917 3.3384278
1.4263005 1.3517919 3.3384275
1.4526851 1.3513863 3.3365092
1.4827129 1.3517811 3.3309553
1.5067561 1.3511307 3.3295932
-1.2325327 -1.7141075 3.3608243
-1.2290146 -1.7177458 3.3748882
1.3132973 -1.7198811 3.3784618
1.3342283 -1.718524 3.3731875
1.3646942 -1.7157245 3.3655105
1.3934016 -1.7149658 3.3582764
1.4188051 -1.7111249 3.3518751
-1.2329744 -1.6940019 3.359086
-1.2290146 -1.6925904 3.3748882
1.3132973 -1.6946945 3.3784618
1.3358362 -1.6949393 3.3727827
1.3646942 -1.6942328 3.3655107
1.3925337 -1.6956061 3.358495
1.4188051 -1.6933007 3.3518753
-1.2329743 -1.6654112 3.359086
-1.2290146 -1.6638415 3.3748882
1.3132973 -1.6659098 3.3784616
1.3361421 -1.664799 3.3727052
1.3646944 -1.6655778 3.3655102
1.393402 -1.6649439 3.3582764
1.4188054 -1.664782 3.3518751
-1.2329743 -1.6368203 3.359086
-1.2290146 -1.6350926 3.3748882
1.3132972 -1.6371251 3.3784618
1.3364476 -1.6346614 3.3726285
1.3641295 -1.6359497 3.3656526
1.3942693 -1.634288 3.3580573
1.4188054 -1.6362631 3.3518753
-1.2331216 -1.6063188 3.3585064
-1.2290146 -1.6063437 3.3748882
1.3129387 -1.6063917 3.3785522
1.3358358 -1.6051674 3.3727825
1.3645062 -1.6055536 3.3655577
1.3934016 -1.6042074 3.3582759
1.4183178 -1.6064419 3.3519981
-1.2328271 -1.5744015 3.3596654
-1.2290146 -1.5775949 3.3748882
1.3136557 -1.5743089 3.3783715
1.3352232 -1.575668 3.372937
1.3654048 -1.5743393 3.3653316
1.3934015 -1.5756248 3.3582761
1.4192579 -1.5745789 3.3517611
-1.2329743 -1.5439 3.359086
-1.2290146 -1.5452523 3.3748882
1.3132973 -1.5435752 3.3784618
1.3355298 -1.5455279 3.3728595
1.3646944 -1.5437938 3.3655105
1.3925337 -1.5455352 3.3584945
1.4188051 -1.5435772 3.3518748
-1.2329743 -1.5153091 3.359086
-1.2290146 -1.51291 3.3748882
1.3132972 -1.5147907 3.3784618
1.3361285 -1.514699 3.3727088
1.3646944 -1.5151387 3.3655105
1.393402 -1.5148841 3.3582761
1.418805 -1.5150585 3.3518748
-1.2329743 -1.4867183 3.359086
-1.2290146 -1.484161 3.3748882
1.3132972 -1.4860058 3.3784618
1.3364477 -1.4838483 3.3726287
1.3646944 -1.4864836 3.3655105
1.3942693 -1.4842402 3.3580577
1.4188054 -1.4865398 3.3518753
-1.2331215 -1.4562471 3.3585064
-1.2290146 -1.4554121 3.3748882
1.3132972 -1.4572213 3.3784616
1.3358357 -1.4543461 3.3727825
1.3639836 -1.4559283 3.3656893
1.3934016 -1.4541482 3.3582761
1.4183527 -1.4555323 3.3519893
-1.2328271 -1.4242692 3.3596654
-1.2290146 -1.4266633 3.3748882
1.3132972 -1.4248387 3.3784616
1.3358358 -1.4256184 3.3727822
1.365405 -1.4239094 3.3653309
1.3934016 -1.4255654 3.3582761
1.4192924 -1.4236817 3.3517523
-1.2329743 -1.393798 3.359086
-1.2290146 -1.3979144 3.3748882
1.3132973 -1.3924561 3.3784618
1.3352232 -1.3961097 3.372937
1.3646942 -1.3933544 3.3655105
1.3927952 -1.3962057 3.358429
1.4188051 -1.3938539 3.3518753
-1.2329743 -1.3652072 3.359086
-1.2290146 -1.3655719 3.3748882
1.3132972 -1.3636713 3.3784618
1.335544 -1.3652576 3.3728559
1.3646942 -1.3646994 3.3655105
1.3931128 -1.3655095 3.3583493
1.4188051 -1.365335 3.3518753
-1.2329743 -1.3366163 3.359086
-1.2290146 -1.3332294 3.3748882
1.3132973 -1.3348867 3.3784618
1.3361421 -1.3344382 3.3727055
1.3646944 -1.3360442 3.3655105
1.3942693 -1.3341922 3.3580577
1.4188051 -1.3368163 3.3518751
-1.2331215 -1.3061755 3.3585064
-1.2290146 -1.3044806 3.3748882
1.3132973 -1.306102 3.3784618
1.3364476 -1.304309 3.3726285
1.3641297 -1.3063997 3.3656523
1.3934015 -1.3040885 3.3582761
1.4183527 -1.3058029 3.3519888
-1.2328271 -1.2741365 3.3596654
-1.2290146 -1.2757316 3.3748882
1.3132973 -1.2773175 3.3784616
1.3358358 -1.2747973 3.3727825
1.3646946 -1.2751508 3.3655102
1.3934016 -1.2755057 3.3582761
1.4192924 -1.2739648 3.3517523
-1.2329743 -1.243696 3.359086
-1.2290146 -1.2469827 3.3748882
1.3132973 -1.2449349 3.3784618
1.3358358 -1.2460693 3.3727825
1.3652583 -1.243906 3.3653684
1.3927951 -1.2461381 3.3584292
1.4188051 -1.2441304 3.3518753
-1.2329744 -1.2151051 3.359086
-1.2290146 -1.2146403 3.3748882
1.3132973 -1.2125521 3.3784618
1.334959 -1.2158016 3.3730032
1.3646944 -1.2142601 3.3655102
1.3931129 -1.2154462 3.3583488
1.4188051 -1.2156117 3.3518748
-1.2331215 -1.1846889 3.3585064
-1.2290146 -1.1822977 3.3748882
1.3132973 -1.1837676 3.3784618
1.3358361 -1.1850203 3.3727822
1.3646942 -1.1856048 3.3655105
1.3942693 -1.184144 3.3580577
1.4188051 -1.187093 3.3518751
-1.2329743 -1.154356 3.359086
-1.2290146 -1.1535488 3.3748882
1.3132973 -1.1549828 3.3784618
1.3367122 -1.1542463 3.3725617
1.3641297 -1.1559529 3.3656526
1.3934015 -1.1540291 3.3582761
1.4188052 -1.1550094 3.3518755
-1.2329743 -1.1257651 3.359086
-1.2290146 -1.1248 3.3748882
1.3132973 -1.1261982 3.3784618
1.3358358 -1.1239761 3.3727822
1.3646947 -1.1247115 3.3655102
1.3934015 -1.1254464 3.3582761
1.4188051 -1.1229259 3.3518753
-1.2328271 -1.0954076 3.3596654
-1.2290146 -1.0960511 3.3748882
1.3132973 -1.0974135 3.3784618
1.3358358 -1.0952482 3.3727825
1.3652585 -1.0934743 3.3653684
1.3927951 -1.0960704 3.358429
1.4188051 -1.0944071 3.3518751
-1.2329743 -1.065003 3.359086
-1.2290146 -1.0673022 3.3748882
1.3132973 -1.0650309 3.3784616
1.3358357 -1.0665206 3.3727825
1.3646944 -1.0638207 3.3655105
1.3931129 -1.065383 3.3583491
1.4188051 -1.0658883 3.3518753
-1.2331215 -1.0346174 3.3585064
-1.2290146 -1.0349598 3.3748882
1.3132972 -1.0326482 3.3784618
1.3349589 -1.0362389 3.3730032
1.3646944 -1.0351657 3.3655107
1.3942693 -1.034096 3.3580577
1.418318 -1.0360423 3.3519981
-1.2329743 -1.004254 3.359086
-1.2290146 -1.0026172 3.3748882
1.3132972 -1.0038636 3.3784616
1.3361284 -1.0047934 3.3727088
1.3646944 -1.0065105 3.3655102
1.3934016 -1.0039696 3.3582761
1.4192579 -1.0042266 3.3517616
-1.2329744 -0.97566313 3.359086
-1.2290146 -0.97386837 3.3748882
1.3132973 -0.97507894 3.3784618
1.3364478 -0.97395682 3.3726285
1.3639838 -0.97592545 3.3656895
1.3934015 -0.9753868 3.3582761
1.4188051 -0.97320235 3.3518751
-1.2328271 -0.94527513 3.3596654
-1.2290146 -0.94511944 3.3748882
1.3132972 -0.94629437 3.3784616
1.3358358 -0.94442719 3.3727827
1.3654048 -0.94396657 3.3653314
1.3934015 -0.94680399 3.3582761
1.4188051 -0.94468367 3.3518751
-1.2329743 -0.91490102 3.359086
-1.2290146 -0.91637063 3.3748882
1.3132972 -0.91750968 3.3784616
1.3358358 -0.91569942 3.3727825
1.3646944 -0.9133814 3.3655105
1.3925717 -0.91595703 3.358485
1.4188054 -0.91616476 3.3518751
-1.2331215 -0.88454586 3.3585064
-1.2290146 -0.88762176 3.3748882
1.3132973 -0.88512707 3.3784618
1.3358357 -0.88697147 3.3727825
1.3646944 -0.88472635 3.3655105
1.3942693 -0.88404799 3.3580573
1.418318 -0.88631237 3.3519981
-1.2329744 -0.8541519 3.359086
-1.2290146 -0.85527927 3.3748882
1.3132973 -0.8527444 3.3784618
1.3349973 -0.85596359 3.3729935
1.3646944 -0.85607123 3.3655102
1.3934017 -0.85390997 3.3582761
1.4192579 -0.85450912 3.3517611
-1.2329743 -0.82556105 3.359086
-1.2290146 -0.82293677 3.3748882
1.3132973 -0.82395971 3.3784618
1.3367122 -0.82390165 3.3725615
1.3641297 -0.82640284 3.3656526
1.3934015 -0.82532734 3.3582764
1.4188054 -0.82347888 3.3518751
-1.2328271 -0.79514271 3.3596654
-1.2290146 -0.79418784 3.3748882
1.3132973 -0.79517514 3.3784618
1.3358358 -0.7936061 3.3727822
1.3651994 -0.79438901 3.3653831
1.3934016 -0.79674453 3.3582764
1.4188051 -0.7949602 3.3518748
-1.2329743 -0.764799 3.359086
-1.2290146 -0.76543897 3.3748882
1.3132973 -0.7663905 3.3784618
1.3358357 -0.76487827 3.3727825
1.3646944 -0.76294214 3.3655102
1.392823 -0.76592606 3.358422
1.4188051 -0.76644146 3.3518751
-1.2331215 -0.73447418 3.3585064
-1.2290146 -0.73669004 3.3748882
1.3132973 -0.73760587 3.3784618
1.3358358 -0.73615044 3.3727825
1.3646942 -0.73428702 3.3655105
1.3942693 -0.73399991 3.3580577
1.418353 -0.73540521 3.3519893
-1.2329744 -0.70404994 3.359086
-1.2290146 -0.70794123 3.3748882
1.3132973 -0.7052232 3.3784618
1.3352231 -0.70660472 3.3729365
1.3646942 -0.70563191 3.3655102
1.3934015 -0.70385045 3.3582761
1.4192924 -0.70361435 3.3517523
-1.2329743 -0.67545909 3.359086
-1.2290146 -0.67559874 3.3748882
1.3132972 -0.67284048 3.3784618
1.3358364 -0.67510241 3.3727822
1.3646942 -0.6769768 3.3655105
1.3934015 -0.67526782 3.3582764
1.4188054 -0.67375541 3.3518751
-1.2328272 -0.64501023 3.3596654
-1.2290146 -0.64325625 3.3748882
1.3132972 -0.64405584 3.3784616
1.3364476 -0.64360458 3.3726285
1.3641895 -0.64552188 3.3656375
1.3934015 -0.64668506 3.3582761
1.4188051 -0.64523673 3.3518753
-1.2329744 -0.61469704 3.359086
-1.2290146 -0.61450738 3.3748882
1.3132973 -0.61527121 3.3784618
1.3358358 -0.61405724 3.3727825
1.3652583 -0.61352509 3.3653684
1.3925717 -0.61581606 3.3584855
1.4188051 -0.61671799 3.3518751
-1.2331215 -0.58440262 3.3585064
-1.2290146 -0.58575851 3.3748882
1.3132973 -0.58648664 3.3784618
1.3358357 -0.58532935 3.3727825
1.3646944 -0.58384776 3.3655105
1.3942693 -0.58395195 3.358058
1.4188054 -0.58463436 3.3518755
-1.2329743 -0.55394793 3.359086
-1.2290146 -0.55700958 3.3748882
1.3132973 -0.55770206 3.3784618
1.3358357 -0.55660152 3.3727827
1.3646944 -0.55519265 3.3655102
1.3934015 -0.55379099 3.3582761
1.4188051 -0.55255079 3.3518753
-1.2329743 -0.52535707 3.359086
-1.2290146 -0.52466714 3.3748882
1.3132973 -0.52531928 3.3784618
1.3349589 -0.52628076 3.3730032
1.3646942 -0.52653754 3.3655107
1.3934015 -0.52520829 3.3582761
1.4188054 -0.524032 3.3518751
-1.2329743 -0.49676624 3.359086
-1.2290146 -0.49232459 3.3748882
1.3132973 -0.49293661 3.3784618
1.3366745 -0.49426839 3.3725712
1.3639836 -0.49592251 3.3656895
1.3934015 -0.49662551 3.3582761
1.4188051 -0.49551326 3.3518753
-1.2328272 -0.46628109 3.3596654
-1.2290146 -0.46357572 3.3748882
1.3132972 -0.46415198 3.3784621
1.3358358 -0.46323615 3.3727827
1.365405 -0.46402353 3.3653314
1.3925717 -0.46574557 3.3584855
1.4188051 -0.46699452 3.3518753
-1.2331215 -0.434331 3.3585064
-1.2290146 -0.43482682 3.3748882
1.3132972 -0.43536735 3.3784618
1.3358358 -0.43450832 3.3727822
1.3646944 -0.43340847 3.3655105
1.3942692 -0.43390393 3.3580573
1.4188052 -0.43491092 3.3518755
-1.2329743 -0.40384588 3.359086
-1.2290146 -0.40607795 3.3748882
1.3132973 -0.40658271 3.3784618
1.3358357 -0.40578055 3.3727825
1.3646942 -0.40475333 3.3655105
1.3934016 -0.40373155 3.3582761
1.4188051 -0.40282732 3.3518751
-1.2329744 -0.37525505 3.359086
-1.2290146 -0.37732911 3.3748882
1.3132972 -0.37779811 3.3784616
1.3358358 -0.37705263 3.3727822
1.3646942 -0.37609825 3.3655105
1.3934016 -0.37514877 3.3582761
1.4188051 -0.37430859 3.3518751
-1.2329743 -0.34666419 3.359086
-1.2290146 -0.34498659 3.3748882
1.3132973 -0.34541541 3.3784618
1.3353003 -0.34534794 3.3729172
1.3646942 -0.34744313 3.3655105
1.3934015 -0.34656602 3.3582761
1.4188054 -0.34578985 3.3518751
-1.2328271 -0.31614867 3.3596654
-1.2290146 -0.31264406 3.3748882
1.3132973 -0.31303272 3.3784621
1.3364476 -0.31325236 3.3726285
1.3646942 -0.31520614 3.3655102
1.3925717 -0.31567508 3.358485
1.4188054 -0.31727111 3.3518751
-1.2331215 -0.28425944 3.3585064
-1.2290146 -0.28389519 3.3748882
1.3132973 -0.28424811 3.3784618
1.3358357 -0.28368723 3.3727822
1.3646944 -0.28296918 3.3655105
1.3942692 -0.28385586 3.3580573
1.4188052 -0.28518751 3.3518755
-1.2329743 -0.25374389 3.359086
-1.2290146 -0.25514632 3.3748882
1.3132973 -0.25546348 3.3784618
1.3358356 -0.25495943 3.3727825
1.3646941 -0.25431406 3.3655105
1.3934017 -0.253672 3.3582761
1.4188054 -0.25310391 3.3518751
-1.2329744 -0.22515301 3.359086
-1.2290146 -0.22639744 3.3748882
1.3132973 -0.22667888 3.3784621
1.3358357 -0.2262316 3.3727827
1.3646944 -0.22565894 3.3655105
1.3934015 -0.2250893 3.3582761
1.4188051 -0.22458515 3.3518748
-1.2329743 -0.19656217 3.359086
-1.2290146 -0.19764857 3.3748882
1.3132972 -0.19789425 3.3784616
1.3358357 -0.19750379 3.3727825
1.3646942 -0.19700383 3.3655107
1.3934017 -0.1965065 3.3582761
1.4188054 -0.19606641 3.3518751
-1.2328271 -0.16601624 3.3596654
-1.2290146 -0.16530608 3.3748882
1.3132973 -0.16551158 3.3784618
1.3358357 -0.165185 3.3727825
1.3646942 -0.16476685 3.3655105
1.3925717 -0.16560459 3.3584855
1.4188054 -0.16754764 3.3518751
-1.2331215 -0.1341878 3.3585064
-1.2290146 -0.13296358 3.3748882
1.3132973 -0.13312887 3.3784616
1.3358358 -0.13286619 3.3727825
1.3646941 -0.13252985 3.3655107
1.3942692 -0.13380781 3.3580575
1.4188052 -0.13546407 3.3518755
-1.2329744 -0.10364187 3.359086
-1.2290146 -0.1042147 3.3748882
1.3132973 -0.10434424 3.3784618
1.3358357 -0.10413837 3.3727825
1.3646944 -0.10387475 3.3655105
1.3934015 -0.10361252 3.3582764
1.4188051 -0.10338046 3.3518753
-1.2329743 -0.07505101 3.359086
-1.2290146 -0.075465813 3.3748882
1.3132973 -0.075559624 3.3784621
1.3358358 -0.07541053 3.3727825
1.3646944 -0.075219646 3.3655102
1.3934017 -0.075029753 3.3582761
1.4188051 -0.07486172 3.3518751
-1.2329744 -0.046460152 3.359086
-1.2290146 -0.046716932 3.3748882
1.3132973 -0.046775006 3.3784618
1.3358357 -0.046682715 3.3727822
1.3646942 -0.046564545 3.3655105
1.3934015 -0.046446986 3.3582764
1.4188051 -0.046342969 3.3518748
-1.2329743 -0.017869288 3.359086
-1.2290146 -0.017968051 3.3748882
1.3132973 -0.017990388 3.3784618
1.3358357 -0.01795489 3.3727825
1.3646944 -0.017909441 3.3655102
1.3934016 -0.017864225 3.3582761
1.4188054 -0.017824218 3.3518751
-1.2329744 0.014295431 3.3590858
-1.2290146 0.014374441 3.3748882
1.3132973 0.014392311 3.3784618
1.3358357 0.014363912 3.3727825
1.3646945 0.014327551 3.3655102
1.3934017 0.014291381 3.3582759
1.4188052 0.014259374 3.3518748
-1.2329744 0.046460148 3.359086
-1.2290146 0.046716932 3.3748882
1.3132973 0.046775006 3.3784618
1.3358358 0.046682715 3.3727825
1.3646942 0.046564545 3.3655107
1.3934015 0.04644699 3.3582761
1.4188051 0.046342969 3.3518748
-1.2329744 0.07505101 3.359086
-1.2290146 0.075465813 3.3748882
1.3132972 0.075559624 3.3784616
1.3358357 0.075410545 3.3727822
1.3646942 0.075219654 3.3655107
1.3934017 0.075029753 3.3582761
1.4188051 0.07486172 3.3518753
-1.2329743 0.10364187 3.359086
-1.2290146 0.10421471 3.3748882
0.08035785 0.10802142 3.3726759
1.3132972 0.10434424 3.3784616
1.3358357 0.10413837 3.3727825
1.3646942 0.10387476 3.3655105
1.3934015 0.10361252 3.3582761
1.4188051 0.10338046 3.3518753
-1.2331215 0.1341878 3.3585064
-1.2290146 0.13296357 3.3748882
1.3132973 0.13312887 3.3784618
1.3358358 0.13286619 3.3727825
1.3646941 0.13252985 3.3655107
1.3942693 0.13380781 3.3580575
1.4188052 0.13546407 3.3518748
-1.2328272 0.16601624 3.3596654
-1.2290146 0.16530608 3.3748882
1.3132973 0.16551158 3.3784621
1.3358357 0.16518497 3.3727825
1.3646942 0.16476686 3.3655107
1.3925717 0.16560459 3.3584855
1.4188051 0.16754767 3.3518748
-1.2329743 0.19656217 3.359086
-1.2290146 0.19764857 3.3748882
1.3132973 0.19789426 3.3784616
1.3358358 0.19750379 3.3727827
1.3646944 0.19700383 3.3655105
1.3934016 0.19650649 3.3582761
1.4188054 0.19606641 3.3518751
-1.2329743 0.22515301 3.359086
-1.2290146 0.22639745 3.3748882
1.3132972 0.22667888 3.3784618
1.3358357 0.2262316 3.3727827
1.3646942 0.22565894 3.3655107
1.3934015 0.22508924 3.3582761
1.4188051 0.22458515 3.3518753
-1.2329744 0.25374389 3.359086
-1.2290146 0.25514632 3.3748882
1.3132973 0.25546351 3.3784621
1.3358357 0.25495946 3.3727825
1.3646942 0.25431406 3.3655105
1.3934015 0.25367203 3.3582761
1.4188054 0.25310391 3.3518753
-1.2331216 0.28425938 3.3585064
-1.2290146 0.28389519 3.3748882
1.3132972 0.28424811 3.3784616
1.3358358 0.2836872 3.3727825
1.3646942 0.28296912 3.3655105
1.3942693 0.28385583 3.3580577
1.4188055 0.28518751 3.3518755
-1.2328272 0.31614867 3.3596654
-1.2290146 0.31264409 3.3748882
1.3132973 0.31303275 3.3784621
1.3364477 0.31325236 3.372628
1.3646942 0.31520617 3.3655107
1.3925717 0.31567511 3.3584855
1.4188051 0.31727111 3.3518748
-1.2329743 0.34666419 3.359086
-1.2290146 0.34498659 3.3748882
1.3132973 0.34541544 3.3784618
1.3353003 0.34534794 3.3729172
1.3646942 0.3474431 3.3655102
1.3934016 0.34656602 3.3582761
1.4188054 0.34578979 3.3518751
-1.2329743 0.37525505 3.359086
-1.2290146 0.37732911 3.3748882
1.3132973 0.37779811 3.3784618
1.3358358 0.37705263 3.3727825
1.3646944 0.37609825 3.3655105
1.3934015 0.37514874 3.3582761
1.4188054 0.37430865 3.3518751
-1.2329743 0.40384591 3.359086
-1.2290146 0.40607795 3.3748882
1.3132973 0.40658274 3.3784621
1.3358357 0.40578052 3.3727822
1.3646944 0.40475333 3.3655105
1.3934016 0.40373155 3.3582761
1.4188051 0.40282735 3.3518748
-1.2331215 0.43433097 3.3585064
-1.2290146 0.43482685 3.3748882
1.3132973 0.43536738 3.3784618
1.3358357 0.43450841 3.3727825
1.3646942 0.43340844 3.3655105
1.3942692 0.43390378 3.3580575
1.4188052 0.43491092 3.3518748
-1.2328271 0.46628115 3.3596654
-1.2290146 0.46357572 3.3748882
1.3132973 0.46415198 3.3784618
1.3358358 0.46323618 3.3727825
1.3654048 0.4640235 3.3653312
1.3925717 0.46574557 3.358485
1.4188051 0.46699452 3.3518753
-1.2329743 0.49676621 3.359086
-1.2290146 0.49232462 3.3748882
1.3132972 0.49293661 3.3784616
1.3366745 0.49426848 3.3725712
1.3639836 0.49592248 3.3656895
1.3934015 0.49662548 3.3582761
1.4188054 0.49551329 3.3518751
-1.2329743 0.52535713 3.359086
-1.2290146 0.52466708 3.3748882
1.3132973 0.52531934 3.3784621
1.3349589 0.5262807 3.3730035
1.3646944 0.52653754 3.3655105
1.3934015 0.52520829 3.3582761
1.4188051 0.524032 3.3518753
-1.2329743 0.55394793 3.359086
-1.2290146 0.55700958 3.3748882
1.3132973 0.55770195 3.3784618
1.3358357 0.55660164 3.3727827
1.3646944 0.55519259 3.3655105
1.3934015 0.55379099 3.3582761
1.4188051 0.55255079 3.3518753
-1.2331215 0.58440256 3.3585064
-1.2290146 0.58575845 3.3748882
1.3132973 0.58648664 3.3784618
1.3358357 0.58532947 3.3727825
1.3646942 0.58384776 3.3655105
1.3942693 0.58395189 3.3580577
1.4188052 0.58463442 3.3518755
-1.2329743 0.61469698 3.359086
-1.2290146 0.61450738 3.3748882
1.3132973 0.61527127 3.3784618
1.3358357 0.61405724 3.3727825
1.3652583 0.61352503 3.3653684
1.3925717 0.615816 3.3584855
1.4188051 0.61671799 3.3518751
-1.2328272 0.64501023 3.3596654
-1.2290146 0.64325619 3.3748882
1.3132972 0.6440559 3.3784616
1.3364476 0.64360458 3.3726282
1.3641895 0.64552194 3.3656375
1.3934016 0.64668506 3.3582761
1.4188054 0.64523673 3.3518751
-1.2329743 0.67545903 3.359086
-1.2290146 0.67559874 3.3748882
1.3132973 0.67284048 3.3784618
1.3358364 0.67510241 3.3727822
1.3646944 0.67697686 3.3655102
1.3934016 0.6752677 3.3582761
1.4188054 0.67375553 3.3518751
-1.2329743 0.70404994 3.359086
-1.2290146 0.70794123 3.3748882
1.3132973 0.7052232 3.3784621
1.3352232 0.70660472 3.372937
1.3646942 0.70563185 3.3655105
1.3934015 0.70385057 3.3582761
1.4192924 0.70361435 3.3517523
-1.2331215 0.73447418 3.3585064
-1.2290146 0.7366901 3.3748882
1.3132973 0.73760587 3.3784618
1.3358357 0.73615044 3.3727825
1.3646942 0.73428702 3.3655105
1.3942693 0.73399997 3.3580575
1.4183527 0.73540521 3.3519893
-1.2329743 0.76479906 3.359086
-1.2290146 0.76543897 3.3748882
1.3132972 0.76639044 3.3784618
1.3358357 0.76487833 3.3727825
1.3646942 0.76294214 3.3655107
1.3925717 0.76588649 3.358485
1.4188051 0.76644146 3.3518753
-1.2328272 0.79514265 3.3596654
-1.2290146 0.7941879 3.3748882
1.3132973 0.79517514 3.3784616
1.3358357 0.79360622 3.3727825
1.3651994 0.79438907 3.3653831
1.3934016 0.79674453 3.3582761
1.4188051 0.7949602 3.3518753
-1.2329743 0.82556105 3.359086
-1.2290146 0.82293671 3.3748882
1.3132972 0.82395971 3.3784618
1.3367122 0.82390153 3.3725615
1.3641297 0.82640278 3.3656528
1.3934015 0.82532734 3.3582761
1.4188054 0.82347894 3.3518751
-1.2329743 0.8541519 3.359086
-1.2290146 0.85527927 3.3748882
1.3132973 0.85274434 3.3784621
1.3349973 0.85596353 3.3729935
1.3646942 0.85607117 3.3655107
1.3934016 0.85390997 3.3582761
1.4192579 0.85450917 3.3517611
-1.2331215 0.8845458 3.3585064
-1.2290146 0.8876217 3.3748882
1.3132973 0.88512701 3.3784621
1.3358358 0.88697159 3.3727825
1.3646941 0.88472635 3.3655107
1.3942693 0.88404799 3.3580575
1.4183178 0.88631254 3.3519981
-1.2329743 0.91490108 3.359086
-1.2290146 0.91637063 3.3748882
1.3128363 0.91908842 3.3785779
1.3358357 0.91569942 3.3727822
1.3646942 0.91338146 3.3655105
1.3925717 0.91595709 3.358485
1.4188051 0.91616488 3.3518751
-1.2328272 0.94527513 3.3596654
-1.2290146 0.9451195 3.3748882
1.3132973 0.94629443 3.3784618
1.3358357 0.94442713 3.3727825
1.365405 0.94396657 3.3653316
1.3934015 0.94680405 3.3582761
1.4188051 0.94468355 3.3518751
-1.2329744 0.97566313 3.359086
-1.2290146 0.97386837 3.3748882
1.3132972 0.975079 3.3784616
1.3364477 0.97395682 3.3726285
1.3639838 0.97592545 3.3656895
1.3934015 0.9753868 3.3582761
1.4188054 0.97320241 3.3518751
-1.2329743 1.004254 3.359086
-1.2290146 1.0026172 3.3748882
1.3132972 1.0038636 3.3784616
1.3361285 1.0047933 3.3727086
1.3646942 1.0065105 3.3655107
1.3934016 1.0039696 3.3582761
1.4192579 1.0042267 3.3517616
-1.2331215 1.0346173 3.3585064
-1.2290146 1.0349598 3.3748882
1.3132973 1.0326482 3.3784618
1.3349589 1.0362388 3.3730035
1.3646942 1.0351657 3.3655107
1.3942692 1.0340961 3.3580577
1.4183177 1.0360425 3.3519981
-1.2329743 1.0650029 3.359086
-1.2290146 1.0673022 3.3748882
1.3132973 1.0650309 3.3784621
1.3358357 1.0665206 3.3727822
1.3646942 1.0638207 3.3655107
1.3931128 1.0653831 3.3583491
1.4188054 1.0658882 3.3518753
-1.2328272 1.0954075 3.3596654
-1.2290146 1.0960511 3.3748882
1.3132973 1.0974135 3.3784618
1.3358358 1.0952482 3.3727825
1.3652583 1.0934744 3.3653684
1.3927952 1.0960708 3.3584294
1.4188051 1.0944071 3.3518753
-1.2329743 1.1257651 3.359086
-1.2290146 1.1248 3.3748882
1.3132973 1.1261982 3.3784618
1.3358357 1.1239761 3.3727825
1.3646946 1.1247115 3.3655102
1.3934016 1.1254463 3.3582761
1.4188054 1.1229259 3.3518751
-1.2329743 1.154356 3.359086
-1.2290146 1.153549 3.3748882
1.3132973 1.1549828 3.3784618
1.3367122 1.1542463 3.3725617
1.3641294 1.155953 3.3656528
1.3934016 1.1540291 3.3582761
1.4188052 1.1550094 3.3518755
-1.2331215 1.1846889 3.3585064
-1.2290146 1.1822977 3.3748882
1.3132973 1.1837674 3.3784621
1.3358362 1.1850204 3.3727825
1.3646944 1.1856049 3.3655105
1.3942693 1.184144 3.3580577
1.4188054 1.187093 3.3518751
-1.2329744 1.2151051 3.359086
-1.2290146 1.2146403 3.3748882
1.3132973 1.2125521 3.3784618
1.3349589 1.2158016 3.3730035
1.3646942 1.2142601 3.3655105
1.3931129 1.2154461 3.3583493
1.4188051 1.2156117 3.3518748
-1.2329743 1.2436959 3.359086
-1.2290146 1.2469827 3.3748882
1.3132972 1.2449349 3.3784616
1.3358358 1.2460693 3.3727825
1.3652585 1.2439061 3.3653681
1.3927952 1.2461382 3.3584287
1.4188054 1.2441304 3.3518751
-1.2328271 1.2741367 3.3596654
-1.2290146 1.2757317 3.3748882
1.3132973 1.2773174 3.3784618
1.3358357 1.2747972 3.3727827
1.3646947 1.2751508 3.3655102
1.3934015 1.2755058 3.3582761
1.4192927 1.2739649 3.3517525
-1.2331215 1.3061755 3.3585064
-1.2290146 1.3044806 3.3748882
1.3132973 1.306102 3.3784618
1.3364476 1.304309 3.3726282
1.3641298 1.3063995 3.3656528
1.3934015 1.3040886 3.3582761
1.418353 1.3058031 3.3519893
-1.2329743 1.3366162 3.359086
-1.2290146 1.3332294 3.3748882
1.3132973 1.3348868 3.3784616
1.3361421 1.3344378 3.3727055
1.3646944 1.3360441 3.3655105
1.3942693 1.3341922 3.3580577
1.4188051 1.3368163 3.3518748
-1.2301624 1.3517482 3.3608427
-1.2138201 1.3516966 3.3691869
-1.183236 1.351759 3.3684742
-1.1545513 1.3517588 3.3684742
-1.1258665 1.351759 3.368474
-1.0971818 1.351759 3.3684745
-1.0665929 1.3517578 3.3676262
-1.0345453 1.35176 3.3693223
-1.0039563 1.351759 3.368474
-0.9752717 1.351759 3.3684745
-0.94658691 1.3517588 3.3684742
-0.91604257 1.3517578 3.3676267
-0.88390595 1.3517601 3.3693221
-0.85336149 1.3517588 3.3684742
-0.82467681 1.3517588 3.3684742
-0.79599202 1.351759 3.3684745
-0.7654922 1.3517578 3.3676262
-0.73504651 1.3517588 3.3684742
-0.70457333 1.3517601 3.3693225
-0.67408186 1.351759 3.368474
-0.64539719 1.351759 3.368474
-0.61494184 1.3517578 3.3676267
-0.58445162 1.3517588 3.368474
-0.55576682 1.351759 3.3684745
-0.5252406 1.3517601 3.3693225
-0.49480224 1.3517588 3.3684742
-0.46439138 1.3517578 3.3676267
-0.43385673 1.351759 3.3684745
-0.40517196 1.351759 3.3684745
-0.37648726 1.351759 3.368474
-0.34590802 1.3517601 3.3693225
-0.31384104 1.3517578 3.3676267
-0.28326181 1.351759 3.3684745
-0.25457707 1.351759 3.3684745
-0.22589235 1.3517588 3.3684742
-0.1972076 1.3517588 3.3684742
-0.16493727 1.351759 3.3684747
-0.13266693 1.351759 3.3684745
-0.10398219 1.351759 3.3684745
-0.075297445 1.351759 3.3684745
-0.046612706 1.351759 3.3684742
-0.017927961 1.3517588 3.3684742
0.014342572 1.3517777 3.3685148
0.046613358 1.3517778 3.3685145
0.075298503 1.3517778 3.3685145
0.10398364 1.3517778 3.3685145
0.13266878 1.3517778 3.3685145
0.16493957 1.3517778 3.3685148
0.19721036 1.3517779 3.3685145
0.22589549 1.3517778 3.3685145
0.25458065 1.3517778 3.3685145
0.2832658 1.3517777 3.3685145
0.31384596 1.3517787 3.3676713
0.34591234 1.3517768 3.3693581
0.37649247 1.3517777 3.3685145
0.40517765 1.3517778 3.3685145
0.43386278 1.3517778 3.3685145
0.46439865 1.3517786 3.3676713
0.49480921 1.3517779 3.3685145
0.52524728 1.3517768 3.3693581
0.55577463 1.3517778 3.3685145
0.58445978 1.3517779 3.3685145
0.61495143 1.3517786 3.3676713
0.64540625 1.3517779 3.3685145
0.67409134 1.3517777 3.3685145
0.70458204 1.3517768 3.3693581
0.73505682 1.3517778 3.3685145
0.76550406 1.3517786 3.3676713
0.79600328 1.3517778 3.3685145
0.82468843 1.3517779 3.3685145
0.85337353 1.3517777 3.3685145
0.88391691 1.3517768 3.3693581
0.91605687 1.3517789 3.3676713
0.94660026 1.3517779 3.3685145
0.97528535 1.3517778 3.3685145
1.0039705 1.3517778 3.3685145
1.0345583 1.3517767 3.3693581
1.0666095 1.3517786 3.3676713
1.0971972 1.3517777 3.3685145
1.1258824 1.3517778 3.3685145
1.1545675 1.3517778 3.3685145
1.1832526 1.3517778 3.3685145
1.2138931 1.351777 3.3693581
1.2458389 1.3517786 3.3676713
1.2764794 1.3517778 3.3685145
1.3051646 1.3517778 3.3685145
1.3319782 1.3514359 3.3667002
1.3625147 1.3517861 3.3609231
1.3869486 1.3512046 3.3596923
-1.2209575 -1.7442251 3.4070418
1.1959294 -1.7448225 3.4080374
1.2156543 -1.7418404 3.4030671
-1.2234013 -1.7258102 3.3972228
1.1959294 -1.7266473 3.4080372
1.2156543 -1.723696 3.4030669
1.2444955 -1.7257575 3.3957996
1.2737875 -1.7229408 3.388418
1.2971376 -1.7223141 3.382534
-1.2238513 -1.6965882 3.3954153
1.1959294 -1.6975669 3.4080372
1.2156544 -1.6946654 3.4030669
1.2448071 -1.6953738 3.3957212
1.2750101 -1.6942153 3.3881097
1.2966396 -1.6957794 3.3826597
-1.2236456 -1.6653305 3.3962414
1.1955634 -1.6665194 3.4081295
1.2156543 -1.6656348 3.4030669
1.2451183 -1.6649921 3.3956428
1.274437 -1.6643565 3.3882544
1.2971379 -1.664662 3.3825345
-1.2234384 -1.6340475 3.3970742
1.1962954 -1.6341033 3.4079449
1.2156544 -1.636604 3.4030674
1.2454292 -1.6346129 3.3955638
1.274437 -1.6354738 3.3882546
1.2976354 -1.633549 3.3824089
-1.2236451 -1.6037769 3.3962436
1.1959294 -1.6030556 3.4080372
1.2150749 -1.606586 3.4032135
1.2457398 -1.6042361 3.3954864
1.274437 -1.6065913 3.3882544
1.2971376 -1.6034095 3.382534
-1.2236452 -1.5748143 3.3962436
1.1959294 -1.5739752 3.4080372
1.2154614 -1.5757926 3.4031157
1.245118 -1.5745057 3.3956428
1.273715 -1.5758014 3.3884366
1.2971376 -1.574584 3.382534
-1.2236452 -1.5458521 3.3962438
1.1959294 -1.5448949 3.4080372
1.2163837 -1.5441717 3.4028828
1.245118 -1.5455493 3.3956428
1.2746284 -1.5443392 3.3882062
1.2971376 -1.5457591 3.382534
-1.2238512 -1.5156248 3.3954155
1.1959294 -1.5158147 3.4080374
1.2156543 -1.5132238 3.4030669
1.2444956 -1.5158122 3.3957999
1.2750101 -1.5137086 3.3881099
1.2971376 -1.5169334 3.382534
-1.2236451 -1.4855226 3.3962438
1.1959294 -1.4867342 3.4080374
1.2156543 -1.4841932 3.4030671
1.2448071 -1.4854338 3.3957212
1.2744368 -1.4838407 3.3882546
1.2966754 -1.4855937 3.3826509
-1.2236457 -1.455353 3.3962419
1.1959294 -1.4576538 3.4080372
1.2156543 -1.4551625 3.4030669
1.2451183 -1.4550579 3.3956428
1.274437 -1.4549581 3.3882544
1.2976354 -1.4533982 3.3824089
-1.2236451 -1.4251842 3.3962436
1.1955634 -1.4265988 3.4081295
1.2156544 -1.4261317 3.4030669
1.2460085 -1.4240181 3.3954182
1.274437 -1.4260756 3.3882542
1.2971376 -1.4232512 3.382534
-1.2234385 -1.395039 3.3970742
1.1962954 -1.3941977 3.4079449
1.2150749 -1.396103 3.4032133
1.245118 -1.393528 3.3956428
1.2738633 -1.3962002 3.3883991
1.2971376 -1.3944259 3.382534
-1.2236451 -1.3648371 3.3962438
1.1959294 -1.3631426 3.4080374
1.2154614 -1.3653165 3.4031155
1.245118 -1.3645715 3.3956428
1.274246 -1.3655708 3.3883028
1.2971376 -1.3656005 3.382534
-1.2238513 -1.3346614 3.3954148
1.1959294 -1.3340622 3.4080374
1.2158476 -1.3345329 3.4030187
1.245118 -1.3356153 3.3956428
1.2751589 -1.334128 3.3880727
1.2971376 -1.3367752 3.382534
-1.2236452 -1.3045074 3.3962438
1.1959294 -1.3049817 3.4080374
1.2162334 -1.3037522 3.4029212
1.2444956 -1.3058667 3.3957996
1.274437 -1.3033246 3.3882544
1.2966396 -1.3066201 3.3826594
-1.2236451 -1.275545 3.3962438
1.1959294 -1.2759013 3.4080372
1.2156543 -1.2737207 3.4030671
1.2448071 -1.2754942 3.3957212
1.274437 -1.2744422 3.3882544
1.2976 -1.2744397 3.3824179
-1.2236457 -1.2453756 3.3962414
1.1959294 -1.2468212 3.4080372
1.2156544 -1.2446902 3.4030671
1.2451183 -1.2451239 3.3956428
1.274437 -1.2455597 3.3882544
1.2971376 -1.2430929 3.382534
-1.2236451 -1.2152066 3.3962436
1.1959294 -1.2177407 3.4080372
1.2156543 -1.2156595 3.4030674
1.2460085 -1.2141001 3.3954184
1.2744371 -1.216677 3.3882544
1.2971376 -1.2142675 3.382534
-1.2234384 -1.1850011 3.3970742
1.1959294 -1.1850252 3.4080372
1.2156544 -1.1866286 3.4030671
1.245118 -1.183594 3.395643
1.2737149 -1.1858627 3.3884366
1.2971376 -1.1854422 3.382534
-1.2236452 -1.1548593 3.3962436
1.1959294 -1.1523099 3.4080372
1.2150749 -1.1565881 3.4032125
1.245118 -1.1546375 3.395643
1.2746284 -1.1544313 3.3882062
1.2971376 -1.1566167 3.382534
-1.2238514 -1.1247437 3.3954153
1.1959294 -1.1232295 3.4080374
1.2156547 -1.1249371 3.4030671
1.245118 -1.125681 3.3956428
1.2750102 -1.1238136 3.3881099
1.2966396 -1.1264539 3.3826597
-1.2236451 -1.0945297 3.3962436
1.1959294 -1.0941491 3.4080372
1.2162334 -1.0932904 3.402921
1.245118 -1.0967246 3.3956428
1.2744371 -1.0939263 3.3882544
1.2976002 -1.0942888 3.3824179
-1.2236451 -1.0655675 3.3962438
1.1959294 -1.0650687 3.4080372
1.2156543 -1.0632483 3.4030671
1.2442272 -1.0662043 3.3958671
1.2744371 -1.0650436 3.3882544
1.2971376 -1.0629344 3.382534
-1.2236457 -1.0353981 3.3962419
1.1959294 -1.0359883 3.4080372
1.2156543 -1.0342176 3.4030671
1.2454154 -1.0345054 3.3955677
1.274437 -1.0361613 3.3882544
1.2971376 -1.0341091 3.3825338
-1.2236451 -1.0052289 3.3962436
1.1959294 -1.0069081 3.4080374
1.2156543 -1.0051869 3.4030669
1.2457397 -1.0034229 3.3954861
1.2738634 -1.0062664 3.3883991
1.2971376 -1.0052838 3.382534
-1.2236451 -0.9762665 3.3962436
1.1959294 -0.97782767 3.4080374
1.2156543 -0.97615629 3.4030671
1.245118 -0.97365981 3.3956428
1.2744374 -0.97478431 3.3882544
1.2971376 -0.97645843 3.382534
-1.2236446 -0.9448905 3.3962455
1.1959294 -0.94511217 3.4080374
1.2156544 -0.94712555 3.4030669
1.245118 -0.94470328 3.3956425
1.2750101 -0.94330674 3.3881099
1.2966396 -0.94628775 3.3826594
-1.2236452 -0.91351449 3.3962436
1.1959294 -0.91239673 3.4080374
1.2149249 -0.91613603 3.4032509
1.245118 -0.91574687 3.395643
1.274437 -0.91341054 3.3882544
1.2976 -0.9141376 3.3824179
-1.2236451 -0.88455218 3.3962438
1.1959294 -0.8833164 3.4080372
1.2163837 -0.8837657 3.4028831
1.245118 -0.88679045 3.3956428
1.2744371 -0.88452792 3.3882546
1.2971376 -0.88277596 3.382534
-1.2236452 -0.85558975 3.3962436
1.1959294 -0.85423607 3.4080372
1.2156544 -0.85277599 3.4030671
1.2442273 -0.85625398 3.3958676
1.2744368 -0.85564536 3.3882544
1.2971376 -0.85395068 3.382534
-1.2236456 -0.82542056 3.3962419
1.1959294 -0.82515562 3.4080372
1.2156543 -0.82374531 3.4030669
1.2454153 -0.82457674 3.3955681
1.2744371 -0.8267628 3.3882544
1.2971376 -0.8251254 3.382534
-1.2236452 -0.79525125 3.3962436
1.1959294 -0.79607522 3.4080372
1.2156544 -0.79471457 3.4030674
1.2457396 -0.79350001 3.3954861
1.2737151 -0.79592365 3.3884366
1.2971376 -0.79630011 3.382534
-1.2238513 -0.76505303 3.3954153
1.1959294 -0.76699489 3.4080372
1.2156544 -0.76568395 3.4030669
1.245118 -0.7637257 3.395643
1.2751591 -0.76373369 3.3880725
1.2971376 -0.76747477 3.382534
-1.2236451 -0.73492187 3.3962436
1.1959294 -0.7379145 3.4080374
1.2156543 -0.73665327 3.4030666
1.245118 -0.73476928 3.3956428
1.2744371 -0.7328946 3.3882546
1.2971375 -0.73504621 3.3825343
-1.2234384 -0.70476425 3.3970742
1.1959294 -0.70519906 3.4080374
1.2150748 -0.70659012 3.403213
1.245118 -0.70581281 3.3956423
1.274437 -0.70401198 3.3882544
1.2971376 -0.70261759 3.382534
-1.2236452 -0.67457438 3.3962438
1.1959294 -0.67248374 3.4080372
1.2156547 -0.67496169 3.4030669
1.245118 -0.67685646 3.395643
1.274437 -0.67512941 3.3882544
1.2971376 -0.67379236 3.382534
-1.2236451 -0.645612 3.3962436
1.1959294 -0.64340323 3.4080372
1.2162334 -0.64333773 3.4029212
1.2442272 -0.64630353 3.3958671
1.274437 -0.64624679 3.3882542
1.2971376 -0.64496696 3.382534
-1.2236456 -0.61544305 3.3962414
1.1959294 -0.6143229 3.4080374
1.2156543 -0.61327291 3.4030671
1.24597 -0.61401838 3.3954279
1.2744371 -0.61736435 3.3882544
1.2971376 -0.61614168 3.382534
-1.2236451 -0.58527356 3.3962436
1.1959294 -0.58524257 3.4080372
1.2156543 -0.58424222 3.4030669
1.245118 -0.582748 3.3956428
1.2739241 -0.58565718 3.3883839
1.2971376 -0.58731627 3.382534
-1.2238514 -0.55513537 3.3954153
1.1959294 -0.55616218 3.4080372
1.2156543 -0.5552116 3.4030671
1.245118 -0.55379164 3.3956428
1.2750102 -0.55341196 3.3881099
1.2971376 -0.55488777 3.3825343
-1.2236451 -0.52494419 3.3962436
1.1959294 -0.52708179 3.4080374
1.2156544 -0.52618092 3.4030671
1.245118 -0.52483517 3.395643
1.274437 -0.52349609 3.3882544
1.2971376 -0.52245939 3.382534
-1.2236451 -0.49598169 3.3962436
1.1959294 -0.49800143 3.4080372
1.2156544 -0.4971503 3.4030669
1.245118 -0.49587879 3.395643
1.2744368 -0.49461356 3.3882542
1.2971376 -0.49363396 3.382534
-1.2234385 -0.46575564 3.3970742
1.1959294 -0.46528599 3.4080372
1.2149249 -0.46613207 3.4032509
1.245118 -0.46692234 3.395643
1.274437 -0.46573102 3.3882542
1.2971376 -0.46480864 3.382534
-1.2236451 -0.43563432 3.3962436
1.1959294 -0.43257058 3.4080372
1.2163837 -0.43381879 3.4028833
1.2442273 -0.43635327 3.3958673
1.2744368 -0.43684849 3.3882544
1.2971376 -0.43598327 3.382534
-1.2236456 -0.40546554 3.3962414
1.1959294 -0.40349022 3.4080372
1.2156543 -0.40280056 3.4030666
1.24597 -0.40409979 3.3954279
1.2737149 -0.4059847 3.3884366
1.2971376 -0.40715796 3.382534
-1.2238514 -0.37417194 3.3954148
1.1959294 -0.37440982 3.4080374
1.2156544 -0.37376991 3.4030674
1.245118 -0.372814 3.395643
1.275159 -0.37384394 3.3880727
1.2971375 -0.37472942 3.382534
-1.2236451 -0.3439289 3.3962436
1.1959294 -0.34532943 3.4080374
1.2156543 -0.34473917 3.4030671
1.245118 -0.34385756 3.395643
1.274437 -0.34298021 3.3882542
1.2971376 -0.34230089 3.382534
-1.2236452 -0.3149665 3.3962436
1.1959294 -0.31624907 3.4080372
1.2156543 -0.31570855 3.4030671
1.245118 -0.31490114 3.395643
1.274437 -0.31409764 3.3882544
1.2971376 -0.31347561 3.382534
-1.2236451 -0.28600407 3.3962438
1.1959294 -0.28716874 3.4080374
1.2156544 -0.2866779 3.4030671
1.245118 -0.2859447 3.3956423
1.2744371 -0.28521508 3.3882544
1.2971376 -0.28465024 3.382534
-1.2236452 -0.25704163 3.3962436
1.1959294 -0.25808835 3.4080374
1.2156544 -0.25764719 3.4030671
1.245118 -0.25698826 3.395643
1.274437 -0.25633255 3.3882544
1.2971376 -0.25582492 3.382534
-1.2234385 -0.22674699 3.3970742
1.1959294 -0.2253729 3.4080374
1.2156544 -0.2249877 3.4030671
1.2442272 -0.22640288 3.3958673
1.2744372 -0.22745004 3.3882544
1.2971377 -0.22699955 3.3825345
-1.2238369 -0.19440617 3.3954725
1.1959294 -0.19265749 3.4080374
1.2156543 -0.19232817 3.4030671
1.24597 -0.19418132 3.3954279
1.2744371 -0.19495717 3.3882546
1.2971376 -0.19457106 3.3825343
-1.2236451 -0.16291369 3.3962436
1.1959294 -0.16357711 3.4080374
1.2156544 -0.16329753 3.4030671
1.245118 -0.1628799 3.395643
1.274437 -0.16246431 3.3882542
1.2971376 -0.16214253 3.382534
-1.2236451 -0.13395126 3.3962436
1.1959294 -0.13449675 3.4080374
1.2156544 -0.13426685 3.4030669
1.245118 -0.13392347 3.395643
1.2744372 -0.13358176 3.3882546
1.2971376 -0.13331722 3.382534
-1.2236451 -0.10498883 3.3962436
1.1959294 -0.10541636 3.4080372
1.2156543 -0.10523619 3.4030671
1.245118 -0.10496705 3.3956428
1.274437 -0.1046992 3.3882544
1.2971376 -0.10449186 3.382534
-1.2236452 -0.076026395 3.3962436
1.1959294 -0.076335981 3.4080372
1.2156543 -0.076205514 3.4030666
1.245118 -0.076010622 3.395643
1.274437 -0.075816676 3.3882544
1.2971376 -0.075666517 3.382534
-1.2236452 -0.047063958 3.3962438
1.1959294 -0.047255613 3.4080374
1.2156543 -0.047174849 3.4030669
1.245118 -0.04705419 3.3956428
1.2744372 -0.046934128 3.3882544
1.2971376 -0.046841182 3.382534
-1.2236452 -0.018101525 3.3962436
1.1959294 -0.018175233 3.4080374
1.2156543 -0.01814417 3.4030669
1.245118 -0.018097764 3.3956423
1.274437 -0.018051591 3.3882544
1.2971377 -0.018015839 3.382534
-1.2236451 0.014481219 3.3962438
1.1959294 0.014540187 3.4080372
1.2156543 0.014515335 3.4030666
1.245118 0.014478211 3.3956425
1.2744368 0.014441271 3.3882546
1.2971376 0.014412672 3.3825343
-1.2236452 0.047063962 3.3962436
1.1959294 0.047255613 3.4080374
1.2156544 0.047174845 3.4030666
1.245118 0.04705419 3.3956428
1.274437 0.046934135 3.3882544
1.2971376 0.046841174 3.382534
-1.2236452 0.076026395 3.3962436
1.1959294 0.076335981 3.4080372
1.2156544 0.076205514 3.4030671
1.245118 0.076010615 3.395643
1.274437 0.075816676 3.3882544
1.2971376 0.075666517 3.382534
-1.2236451 0.10498883 3.3962436
1.1959294 0.10541636 3.4080372
1.2156544 0.10523619 3.4030676
1.2451179 0.10496704 3.3956425
1.2744371 0.10469921 3.3882544
1.2971376 0.10449186 3.382534
-1.2236451 0.13395126 3.3962436
1.1959294 0.13449673 3.4080374
1.2156544 0.13426685 3.4030669
1.245118 0.13392346 3.395643
1.2744371 0.13358176 3.3882546
1.2971376 0.1333172 3.382534
-1.2236452 0.16291371 3.3962436
1.1959294 0.16357711 3.4080372
1.2156544 0.16329753 3.4030671
1.245118 0.16287991 3.395643
1.274437 0.16246429 3.3882542
1.2971376 0.16214253 3.382534
-1.2238371 0.19440617 3.3954725
1.1959294 0.19265749 3.4080372
1.2156543 0.19232818 3.4030671
1.24597 0.19418134 3.3954282
1.2744372 0.19495718 3.3882546
1.2971375 0.19457106 3.382534
-1.2234384 0.22674699 3.3970742
1.1959294 0.22537291 3.4080372
1.2156544 0.22498773 3.4030666
1.2442271 0.22640285 3.3958673
1.274437 0.22745003 3.3882544
1.2971376 0.22699955 3.382534
-1.2236452 0.25704163 3.3962436
1.1959294 0.25808832 3.4080372
1.2156543 0.25764719 3.4030669
1.2451179 0.25698826 3.395643
1.274437 0.25633255 3.3882544
1.2971376 0.25582489 3.382534
-1.2236451 0.28600407 3.3962438
1.1959294 0.28716874 3.4080372
1.2156543 0.28667787 3.4030674
1.2451179 0.2859447 3.395643
1.274437 0.28521511 3.3882546
1.2971376 0.28465024 3.382534
-1.2236451 0.3149665 3.3962438
1.1959294 0.31624907 3.4080372
1.2156543 0.31570855 3.4030671
1.245118 0.31490117 3.3956428
1.274437 0.3140977 3.3882544
1.2971376 0.31347558 3.382534
-1.2236451 0.34392893 3.3962438
1.1959294 0.34532946 3.4080372
1.2156543 0.3447392 3.4030671
1.2451178 0.34385756 3.395643
1.2744372 0.34298021 3.3882542
1.2971376 0.34230089 3.382534
-1.2238513 0.37417197 3.3954153
1.1959294 0.37440979 3.4080372
1.2156543 0.37376991 3.4030674
1.245118 0.37281397 3.395643
1.275159 0.37384391 3.3880725
1.2971376 0.37472948 3.3825343
-1.2236456 0.40546554 3.3962414
1.1959294 0.40349019 3.4080374
1.2156543 0.40280056 3.4030669
1.24597 0.40409988 3.3954282
1.2737151 0.40598473 3.3884366
1.2971376 0.40715796 3.382534
-1.2236452 0.43563432 3.3962436
1.1959294 0.43257055 3.4080374
1.2163837 0.43381876 3.4028828
1.2442274 0.43635327 3.3958676
1.2744371 0.43684846 3.3882544
1.2971376 0.43598327 3.382534
