# .PCD v0.7 - Point Cloud Data file format
VERSION 0.7
FIELDS x y z
SIZE 4 4 4
TYPE F F F
COUNT 1 1 1
WIDTH 1468
HEIGHT 1
VIEWPOINT 0 0 0 1 0 0 0
POINTS 1468
DATA ascii
0.56706393 0.44752777 1.4527526
0.60528809 0.47195718 1.4071685
0.5760296 0.54658902 1.465919
0.61342186 0.55586863 1.4175885
0.58487666 0.6445027 1.4789519
0.62286401 0.65322667 1.4296732
0.59324384 0.73506278 1.4907548
0.63269544 0.75227952 1.4416614
0.59980583 0.80411512 1.4995146
0.6381163 0.8358922 1.4556844
0.19847576 -0.94361031 1.5969386
0.22892983 -0.9185248 1.5620577
0.25190637 -0.84997469 1.5484254
0.26695514 -0.75234067 1.552976
0.305145 -0.73101801 1.5066451
0.27590004 -0.65364599 1.5660764
0.31334135 -0.64419281 1.5177242
0.28493559 -0.55586451 1.5788202
0.3228904 -0.54653686 1.5297378
0.29331118 -0.46499544 1.5906913
0.33264598 -0.44771481 1.5417719
0.29982111 -0.39776218 1.5990459
0.34639695 -0.34988281 1.5481341
0.36339951 -0.25134701 1.5502675
0.40341863 -0.21659929 1.5048847
0.37341762 -0.15305342 1.5618092
0.41073236 -0.14282733 1.5138254
0.38191679 -0.055361941 1.5752574
0.41974893 -0.047429971 1.5259848
0.39081851 0.039057329 1.5873224
0.42953289 0.051938295 1.5381192
0.39809725 0.11673316 1.5973083
0.44136149 0.15099637 1.5474031
0.45907754 0.24992783 1.548669
0.50150281 0.29489294 1.5026369
0.47051978 0.34719738 1.5580165
0.50803924 0.36126062 1.5107375
0.47952652 0.44606358 1.5710752
0.51705742 0.45490861 1.5224478
0.4883512 0.54289657 1.5838629
0.52667665 0.55290037 1.5344517
0.4958387 0.62340993 1.5942909
0.53693688 0.65157062 1.5457619
0.55371004 0.75007004 1.5481968
0.56759143 0.84755677 1.5542928
0.60579556 0.86857116 1.5078624
0.57037699 0.91974813 1.5689714
0.60511082 0.90494549 1.5180879
0.11927781 -1.0072603 1.6880592
0.15668046 -0.94508046 1.6532373
0.20086214 -0.90988815 1.6023244
0.17071149 -0.85230935 1.6579249
0.20821442 -0.84002733 1.6102115
0.17934072 -0.75354654 1.6714712
0.21691585 -0.74565244 1.6225376
0.18827902 -0.65766799 1.6838593
0.2265377 -0.64665812 1.6347959
0.19638713 -0.57361323 1.6943496
0.23723881 -0.54829222 1.6454309
0.25347841 -0.44996548 1.648546
0.26768532 -0.35231316 1.6542419
0.30587563 -0.33268803 1.6074753
0.27669141 -0.25359687 1.6672645
0.31417599 -0.24418414 1.6188445
0.28570226 -0.15591784 1.680014
0.32375661 -0.14643294 1.630839
0.29386961 -0.068031058 1.6914052
0.33330071 -0.048685268 1.642885
0.34747237 0.04876972 1.6485796
0.36447626 0.14840245 1.6509912
0.40379998 0.1751762 1.6045153
0.37383667 0.24698983 1.6635
0.41117889 0.25654319 1.6153069
0.38312799 0.34509215 1.6759789
0.42084074 0.35341907 1.626969
0.39139348 0.43859962 1.6886736
0.43022877 0.45223862 1.6394999
0.39830884 0.50986409 1.6975142
0.44252369 0.55034351 1.6479074
0.4601779 0.64927447 1.6492584
0.5015505 0.68543279 1.6024001
0.47127965 0.74689829 1.6591591
0.50873661 0.76054907 1.6118588
0.48033887 0.84571201 1.6721344
0.5177229 0.8544091 1.6236653
0.48908371 0.94219083 1.6849391
0.52345109 0.94391167 1.6387776
0.49492723 1.0068051 1.6935322
0.5033313 1.0035232 1.6812983
0.060852557 -1.0296724 1.7615515
0.10482448 -1.0117143 1.7065184
0.074485935 -0.95343471 1.7625532
0.11198355 -0.9422006 1.7145802
0.082293175 -0.85486656 1.7771634
0.12016534 -0.8464973 1.7279493
0.091605112 -0.76033753 1.7886992
0.13065533 -0.74731034 1.7390802
0.098834172 -0.6895858 1.7969849
0.14247391 -0.6493113 1.7481046
0.160074 -0.55089229 1.7493964
0.20156014 -0.51100022 1.7033409
0.17127544 -0.45263901 1.7593238
0.20883663 -0.44118717 1.7113215
0.17998688 -0.35431862 1.7726452
0.21764554 -0.34540379 1.7238587
0.18929194 -0.25816002 1.7846081
0.22759968 -0.24676014 1.7355771
0.19610518 -0.17925853 1.7955379
0.23781665 -0.14884424 1.7467546
0.25493056 -0.051105294 1.748533
0.26841491 0.045965198 1.7550627
0.30647215 0.067960307 1.7090793
0.27751985 0.14591584 1.7682655
0.3149693 0.15567686 1.7199802
0.28637218 0.24325727 1.7811445
0.3244656 0.25310615 1.7320089
0.29432574 0.32744288 1.7918806
0.33439162 0.35251272 1.7439611
0.34941989 0.45022658 1.748561
0.36549854 0.54801744 1.7517561
0.40469363 0.57567543 1.7056797
0.37466872 0.64653105 1.7645034
0.41211185 0.65657407 1.7162997
0.38367569 0.74481571 1.7774148
0.42151013 0.75356543 1.7283492
0.39240819 0.83812553 1.7894243
0.4312773 0.85246193 1.7403852
0.39973909 0.90502787 1.7965803
0.44400054 0.95013386 1.7481004
0.45027748 1.0263896 1.7590799
-0.039819416 -1.1140404 1.8764919
-0.023608498 -1.0539249 1.8698771
0.014076108 -1.0417908 1.8218797
-0.014894541 -0.95690519 1.8828624
0.023416907 -0.94692314 1.8334651
-0.0073670382 -0.87615037 1.8932983
0.033205424 -0.84819055 1.8454306
0.049243499 -0.75039953 1.8486812
0.066029802 -0.65202564 1.8510662
0.10546047 -0.62065506 1.8056186
0.073992483 -0.55320317 1.8655303
0.11161246 -0.54351503 1.8169953
0.083591513 -0.45471367 1.8776914
0.12156765 -0.44617981 1.8283777
0.092914462 -0.3604165 1.8891532
0.13166721 -0.34766689 1.8398654
0.099624418 -0.2917538 1.8976079
0.14391004 -0.24967468 1.8483133
0.16187914 -0.15090048 1.8491974
0.20342204 -0.11329478 1.8024813
0.17158467 -0.054416895 1.8606997
0.20913291 -0.041778632 1.8130169
0.18129858 0.045180842 1.8729886
0.21897863 0.052805237 1.8238437
0.18960735 0.14350021 1.8868537
0.22790281 0.15205334 1.8371137
0.19769469 0.22106707 1.8957145
0.23934227 0.2511549 1.8469336
0.25666636 0.34995162 1.8486977
0.2692849 0.4470154 1.8563976
0.30713159 0.46456957 1.8095684
0.27832103 0.54624718 1.8695111
0.31592599 0.55550706 1.8208888
0.2874046 0.64399731 1.8821812
0.32534134 0.65323019 1.8330997
0.29509881 0.72988892 1.8937055
0.33521688 0.75181526 1.8449109
0.35075149 0.84995639 1.8489332
0.36654884 0.94777453 1.8525168
0.40515035 0.97164959 1.8062779
-1.5072817 1.0867457 1.8900172
-1.4465293 1.0920993 1.8691258
-1.3499287 1.0925065 1.8675345
-1.2499731 1.0924889 1.8676032
-1.1502341 1.0925019 1.8675599
-1.0502778 1.0925277 1.8674647
-0.95010906 1.0924964 1.8675828
-0.84973198 1.092521 1.8674927
-0.74977207 1.0925033 1.8675585
-0.65003008 1.0924847 1.8676318
-0.55007589 1.092526 1.8674676
-0.44990644 1.0925268 1.867468
-0.34995073 1.0924865 1.8676313
-0.25020874 1.0925217 1.8674912
-0.15025514 1.0925525 1.867373
-0.05136187 1.092468 1.8677022
0.049027231 1.092468 1.8677036
0.15025511 1.0925528 1.8673739
0.25020877 1.0925205 1.8674926
0.36056107 1.065617 1.864773
0.41131914 1.0515475 1.8182936
-0.12012121 -1.1465399 1.9770708
-0.080735363 -1.1271315 1.9286261
-0.11100188 -1.0591993 1.9870323
-0.072237454 -1.0472699 1.9375176
-0.10483017 -0.98839277 1.9967654
-0.061455783 -0.94931751 1.9479371
-0.043553758 -0.85027903 1.9489794
0 -0.80568337 1.9013193
-0.031976692 -0.75295848 1.9581589
0.0056919204 -0.73929179 1.9105743
-0.023103604 -0.65421176 1.971369
0.014601731 -0.64542687 1.9224877
-0.014176577 -0.55734468 1.9840271
0.024207124 -0.54714012 1.9345882
-0.0072055417 -0.47923031 1.9945416
0.034186069 -0.44860876 1.9462436
0.05096484 -0.35017556 1.9486539
0.065983474 -0.25297719 1.953136
0.10437574 -0.22436155 1.9083922
0.074993692 -0.15381353 1.9662651
0.11272287 -0.14357929 1.9177233
0.084431581 -0.056475822 1.9783486
0.12239183 -0.047778521 1.9290984
0.093808167 0.037178028 1.9895742
0.13252379 0.051128317 1.9406433
0.099959686 0.10745741 1.9991937
0.14554977 0.15019202 1.9483045
0.162678 0.24867257 1.9502521
0.20283017 0.28579605 1.9052973
0.17267251 0.34776917 1.9620312
0.21014486 0.35665953 1.9134929
0.18200098 0.44509658 1.9742615
0.21940896 0.45446786 1.9259329
0.19066136 0.54233348 1.9873747
0.22905828 0.55191898 1.9377596
0.19860274 0.61827624 1.9960188
0.2407371 0.6506052 1.9471502
0.25828141 0.74982321 1.9487227
0.26984113 0.84775025 1.9580808
0.30753097 0.8586098 1.9097502
0.27898309 0.94590533 1.9707763
0.31647095 0.95494735 1.9222549
-1.5352278 1.0689198 1.9595906
-1.4499946 1.0716888 1.9487842
-1.3499839 1.0717345 1.9486049
-1.2499752 1.0717072 1.9487108
-1.1501095 1.0717304 1.9486258
-1.0502441 1.0717441 1.9485707
-0.95023328 1.0717261 1.9486412
-0.85022551 1.071754 1.9485383
-0.75021231 1.0717348 1.9486105
-0.65020537 1.0717274 1.948643
-0.5501951 1.0717546 1.948521
-0.45018679 1.0717227 1.9486634
-0.35017592 1.0717474 1.9485573
-0.25016737 1.0717429 1.9485924
-0.15015745 1.0717822 1.9484353
-0.051305592 1.0716577 1.9489211
0.048869271 1.0716556 1.9489285
0.15015747 1.071781 1.9484378
0.25557238 1.0642792 1.9531615
0.32421193 1.0519423 1.928147
-0.21402681 -1.2273456 2.0837486
-0.17977762 -1.2125764 2.0410829
-0.20741358 -1.1672155 2.0901511
-0.16841245 -1.146951 2.0424483
-0.15470219 -1.0498489 2.0486784
-0.13667737 -0.95074087 2.049572
-0.09515693 -0.91149712 2.0033038
-0.12661444 -0.85308868 2.0608897
-0.088942498 -0.84094322 2.0129118
-0.11817053 -0.75468951 2.0745916
-0.080416404 -0.74533397 2.0257902
-0.11016054 -0.66064894 2.0877683
-0.071517467 -0.64683956 2.0389011
-0.10490057 -0.59268594 2.0980115
-0.060149353 -0.54927504 2.0484269
-0.042152993 -0.45019644 2.0493476
0 -0.40809852 2.0029562
-0.031257045 -0.35272959 2.0594888
0.0066389889 -0.33965695 2.0114472
-0.022312591 -0.2540729 2.0725789
0.015467348 -0.24542722 2.0235627
-0.013715937 -0.15878397 2.0852811
0.025073042 -0.14684671 2.0357351
-0.006548522 -0.082480378 2.095067
0.034918603 -0.049722649 2.0472128
0.052212972 0.048748191 2.0489337
0.066539668 0.14758195 2.0547717
0.10433487 0.16556694 2.0081208
0.075951435 0.24683639 2.0673809
0.11334871 0.25460243 2.0186572
0.08551643 0.34491399 2.0794823
0.12345288 0.35293499 2.0300927
0.094576128 0.43818367 2.0910389
0.13367374 0.45214072 2.0415919
0.14698556 0.54999816 2.0485563
0.16325124 0.64825708 2.0516181
0.20277348 0.67742133 2.0054827
0.17366897 0.74711019 2.0627623
0.211191 0.75712585 2.0144432
0.18237354 0.84342045 2.0755775
0.22046261 0.85502172 2.0268955
0.19139022 0.94130474 2.0883734
0.22991048 0.95206249 2.0388911
-1.6288623 1.0415623 2.0663526
-1.5505575 1.0455643 2.0507364
-1.4495783 1.0457236 2.0501146
-1.3497993 1.0456814 2.0502813
-1.2498468 1.045688 2.0502558
-1.1500654 1.0456537 2.050396
-1.0501113 1.0456705 2.0503333
-0.950158 1.0456707 2.0503275
-0.85054791 1.0456903 2.0502539
-0.75042027 1.0456522 2.0504026
-0.64995545 1.0456878 2.0502627
-0.54983139 1.0456458 2.0504229
-0.45004728 1.0456951 2.0502365
-0.35009432 1.0456705 2.0503333
-0.24996951 1.0456947 2.0502362
-0.15001614 1.0457312 2.0501046
-0.051268525 1.0455672 2.0507429
0.048705094 1.0455676 2.0507438
0.15084186 1.0452493 2.0508888
0.23419586 1.0362992 2.0377321
-0.31020012 -1.3089224 2.1932974
-0.29756781 -1.3045576 2.1772916
-0.30316454 -1.2757876 2.1922302
-0.26493677 -1.2420281 2.1490259
-0.24758796 -1.1501614 2.1489861
-0.23221512 -1.0520555 2.153218
-0.19377773 -1.0318205 2.1062717
-0.22391978 -0.9541105 2.1670058
-0.18608314 -0.94295639 2.1185515
-0.21470614 -0.85388136 2.1801326
-0.17705917 -0.84772879 2.1306591
-0.20610289 -0.76808733 2.1903975
-0.16674192 -0.74682748 2.1424611
-0.15312605 -0.64958352 2.148855
-0.13581344 -0.55121702 2.1505244
-0.096766464 -0.52747273 2.1036487
-0.12574509 -0.45353597 2.1618433
-0.088122129 -0.44156656 2.1138868
-0.11737563 -0.3555133 2.1755509
-0.079393283 -0.34587249 2.1265125
-0.10919201 -0.26231283 2.1882784
-0.070393927 -0.24709579 2.13956
-0.1044537 -0.19516256 2.1990252
-0.058533434 -0.14926666 2.1484842
-0.041198511 -0.052137665 2.1498077
0 -0.015767604 2.1032398
-0.030886672 0.045706868 2.1608367
0.0071086106 0.057377029 2.1122994
-0.021446716 0.14550556 2.173548
0.015786299 0.15403953 2.1252422
-0.012830228 0.24061422 2.1861756
0.025735464 0.25272173 2.1369772
-0.006275462 0.31371641 2.1959729
0.03662128 0.35087851 2.1473072
0.05405809 0.44981909 2.1489553
0.067374647 0.54672331 2.1556697
0.10547042 0.56864786 2.1096168
0.076494947 0.64642823 2.1687896
0.11416507 0.65557534 2.1200485
0.086015917 0.74405015 2.1808336
0.12419885 0.7533775 2.1314447
0.09496583 0.83376426 2.1916308
0.13436164 0.85257 2.1430192
0.14817345 0.94998461 2.1491907
-1.7203685 1.0147759 2.1708832
-1.6484166 1.0203018 2.1493237
-1.5493658 1.0204784 2.148632
-1.4504148 1.0205476 2.1483607
-1.3500209 1.0205246 2.1484563
-1.2498316 1.0205166 2.1484861
-1.1496364 1.0205255 2.1484537
-1.0496498 1.0205097 2.1485147
-0.94966382 1.0205573 2.1483326
-0.84926832 1.0205015 2.1485484
-0.74927455 1.020519 2.1484845
-0.64970547 1.0205321 2.1484249
-0.54992414 1.0205333 2.1484237
-0.44973275 1.0205088 2.1485186
-0.34953803 1.0205256 2.1484544
-0.24955569 1.0205257 2.1484559
-0.14936239 1.0205911 2.1482136
-0.051034611 1.0204352 2.1488266
0.048348565 1.0204351 2.1488249
0.14288123 1.0200655 2.1383619
-1.733007 -1.322577 2.2436295
-1.6758404 -1.3390317 2.2843208
-0.3623181 -1.3292073 2.2587852
-1.7415807 -1.2487555 2.2558024
-1.689482 -1.2686316 2.2916374
-0.34066504 -1.2507989 2.2494671
-0.29729486 -1.2056935 2.2021842
-1.7561328 -1.1521739 2.2691083
-0.32921329 -1.1516745 2.2592771
-0.29188028 -1.1425798 2.2109802
-1.8044122 -1.036095 2.2609181
-1.7742298 -1.0557125 2.2796018
-0.32021797 -1.0551451 2.2717562
-0.28265312 -1.0443941 2.223567
-1.8101271 -0.94499642 2.2797632
-1.7887465 -0.96601003 2.2911747
-0.3110702 -0.95631611 2.284615
-0.27279717 -0.94733608 2.2350137
-1.8217833 -0.85928494 2.2925603
-0.30471253 -0.88472641 2.2942953
-0.26300701 -0.84833509 2.2470448
-1.8370715 -0.78965968 2.2983923
-0.24559356 -0.75014496 2.2485325
-0.23283292 -0.65279782 2.2561133
-0.19480476 -0.6371662 2.2085457
-0.22224513 -0.55377209 2.2670717
-0.18431228 -0.54398853 2.2181363
-0.21430984 -0.45677722 2.2811053
-0.1765504 -0.44639251 2.2325592
-0.20517032 -0.36206552 2.2929232
-0.16604474 -0.34831819 2.2433851
-0.15172921 -0.25007772 2.2490857
-0.13575271 -0.15167312 2.2525764
-0.097356267 -0.12751181 2.2066882
-0.12498928 -0.0527988 2.2632563
-0.087542124 -0.046754107 2.2140245
-0.1160952 0.043313649 2.2757652
-0.078144886 0.052560065 2.2266688
-0.10802034 0.13780801 2.2889707
-0.069198839 0.15240745 2.2400613
-0.10345424 0.20116103 2.2989831
-0.057098832 0.25050983 2.2487319
-0.039844349 0.34876132 2.2504506
0.00068783603 0.38227627 2.2040572
-0.030086422 0.44673204 2.2622616
0.0077303494 0.45793507 2.2138476
-0.020801997 0.54574674 2.2749817
0.01681282 0.55394685 2.2260764
-0.011813979 0.64157671 2.2872906
0.0264707 0.65255082 2.2381859
-0.0057427166 0.71209949 2.2970867
0.037485171 0.75056714 2.2483039
0.055683255 0.84986585 2.2490101
-1.8145682 0.98595995 2.2833345
-1.7494704 0.99064445 2.2650568
-1.6500224 0.99076378 2.2645922
-1.5493398 0.99083048 2.2643313
-1.4496679 0.99068433 2.2649026
-1.3499496 0.99076486 2.2645864
-1.249933 0.99069774 2.2648466
-1.1499172 0.9908064 2.2644417
-1.0498948 0.99078 2.2645433
-0.94987869 0.99073982 2.2646997
-0.84985781 0.99079275 2.2644935
-0.74983263 0.99075288 2.2646496
-0.64981747 0.99075389 2.2646444
-0.54979265 0.99080747 2.2644382
-0.449779 0.99072713 2.2647526
-0.3497563 0.990794 2.264492
-0.24973278 0.99075246 2.2646494
-0.14941005 0.99080622 2.2644415
-0.050958093 0.99071658 2.2648065
0.056459218 0.96270764 2.2558279
0.10742217 0.97016448 2.2096059
-1.7359703 1.003853 2.2135305
-1.6485182 1.0040377 2.2128091
-1.5489415 1.0040371 2.2128081
-1.4493651 1.0040374 2.2128086
-1.3497888 1.004037 2.2128084
-1.2502137 1.0040385 2.2128119
-1.149954 1.0040814 2.2126558
-1.0496873 1.0040411 2.212816
-0.94942576 1.0040541 2.2127607
-0.8491534 1.0040402 2.212815
-0.74957663 1.0040411 2.2128155
-0.65000004 1.0040412 2.212816
-0.54974294 1.0040821 2.2126567
-0.44947085 1.0040407 2.2128158
-0.34989408 1.0040407 2.212816
-0.25031745 1.0040404 2.2128146
-0.15074074 1.0040402 2.212815
-0.051884659 1.0040824 2.2126503
0.049117479 1.0040808 2.2126598
0.1098485 1.0047597 2.2083037
-1.5358782 -1.4135815 2.3751593
-1.4992841 -1.4333141 2.3988547
-0.46452576 -1.4140844 2.3756781
-1.6270714 -1.341823 2.3219087
-1.5623072 -1.3536832 2.3697407
-0.43619403 -1.3509195 2.3534091
-0.39634052 -1.3204197 2.307164
-1.6436536 -1.2470685 2.3331544
-1.5782294 -1.2559661 2.3822615
-0.42529711 -1.2538726 2.36344
-0.38766697 -1.2415941 2.3155537
-1.7113804 -1.1347449 2.3087225
-1.6510679 -1.150569 2.3520472
-1.5910258 -1.1730168 2.3934574
-0.4163571 -1.1536714 2.3769314
-0.37880811 -1.1479552 2.327477
-1.7261369 -1.0444604 2.3202567
-1.6614 -1.0536921 2.3687449
-0.40808907 -1.0592691 2.3898523
-0.36951816 -1.048131 2.3403978
-1.7424933 -0.94687855 2.3324037
-1.6769857 -0.95615315 2.3814845
-0.40172207 -0.99231237 2.3983407
-0.35701916 -0.94969314 2.3486123
-1.8102993 -0.83313417 2.3082802
-1.7508323 -0.85048479 2.3505437
-1.6901783 -0.87168151 2.3927572
-0.3394779 -0.85125762 2.3499901
-0.29956749 -0.81804162 2.3043652
-1.8223881 -0.74655539 2.3209591
-1.760572 -0.75373 2.367676
-0.32785705 -0.75329185 2.3592749
-0.29005191 -0.73949689 2.3115387
-1.8292166 -0.64824575 2.3407726
-1.7759354 -0.65589964 2.3806639
-0.31956652 -0.65311849 2.373641
-0.28210706 -0.6475926 2.3242586
-1.8355123 -0.5488652 2.3612804
-1.7896652 -0.56865263 2.3922265
-0.31031096 -0.55935472 2.3850589
-0.27217582 -0.54659128 2.3366108
-1.8504602 -0.45275313 2.3741574
-0.30559322 -0.48834449 2.3968096
-0.26189712 -0.44913104 2.3475864
-1.8722887 -0.35414028 2.3822672
-0.24414052 -0.35030261 2.3487725
-1.9045192 -0.23875229 2.3865063
-1.8886498 -0.26745456 2.391619
-0.23124836 -0.25344729 2.3560493
-0.19279046 -0.23233813 2.3092985
-1.9120227 -0.1780702 2.3961585
-0.22321528 -0.15391788 2.3705997
-0.18563747 -0.14589345 2.3216958
-0.21198054 -0.055800524 2.3804424
-0.17445408 -0.049393814 2.331198
-0.20544609 0.024650626 2.3921483
-0.16520545 0.05088846 2.3442926
-0.15033856 0.14988205 2.3494396
-0.13474825 0.2476404 2.3532848
-0.095659919 0.27240229 2.3066123
-0.12602852 0.34650877 2.3667352
-0.088515058 0.3556883 2.3182166
-0.11518726 0.44701466 2.3777258
-0.077681907 0.45200062 2.3281462
-0.10633951 0.53988659 2.3894706
-0.067553781 0.55238616 2.3400719
-0.055526067 0.65015543 2.3487546
-0.038606331 0.74862146 2.3509829
0.0012787295 0.78122574 2.305233
-0.029184604 0.84676749 2.3632965
0.008361835 0.85797054 2.3152471
-1.906392 0.95915645 2.3879728
-1.8417047 0.96743715 2.3556311
-1.7502055 0.96920359 2.3487425
-1.6503676 0.96898615 2.3495874
-1.55051 0.96898568 2.3495877
-1.4501235 0.96909219 2.3491745
-1.3500252 0.96913236 2.3490176
-1.2504512 0.96904755 2.3493524
-1.1500702 0.96905774 2.3493142
-1.0496937 0.96909499 2.349169
-0.94984978 0.96904755 2.349359
-0.85001087 0.96909583 2.3491709
-0.74989212 0.96903479 2.3494048
-0.65005261 0.96911013 2.3491168
-0.55021042 0.96904635 2.3493607
-0.45009547 0.96907169 2.3492625
-0.35025397 0.96909553 2.3491688
-0.25014681 0.96904725 2.3493609
-0.15002362 0.96898729 2.3495939
-0.045650799 0.95920968 2.3534906
0.016016869 0.94927377 2.3231411
-1.5024195 -1.4103298 2.4022708
-1.4446735 -1.4316223 2.4421773
-1.3809021 -1.4534414 2.4866827
-0.53421021 -1.4411596 2.463248
-0.49182445 -1.421193 2.4108791
-1.514228 -1.3389618 2.4112792
-1.4522022 -1.351402 2.4568107
-1.3942651 -1.3786578 2.4953399
-0.52207726 -1.3525469 2.4694469
-0.48461246 -1.3474342 2.4199536
-1.5301743 -1.245665 2.4226496
-1.4650611 -1.2541249 2.4716272
-0.51318216 -1.2549858 2.4823253
-0.47504306 -1.2479573 2.4324059
-1.6027089 -1.1074893 2.401062
-1.5456586 -1.1472001 2.4357061
-1.4802735 -1.1579425 2.4843118
-0.50616139 -1.1781372 2.49245
-0.46574819 -1.147979 2.445359
-1.6134089 -1.0381035 2.4104321
-1.5518131 -1.0510479 2.4555008
-1.4930528 -1.0777797 2.494807
-0.45017651 -1.050336 2.4492037
-1.6288216 -0.94501364 2.4221692
-1.5637126 -0.95431453 2.4709263
-0.43452567 -0.95269048 2.4529436
-0.39569837 -0.92299521 2.4078858
-1.6451443 -0.84670788 2.434525
-1.5796827 -0.85713208 2.4832723
-0.42432785 -0.85265303 2.4646876
-0.38668689 -0.84345978 2.415998
-1.7125834 -0.73790771 2.4094183
-1.6515566 -0.75056267 2.4541132
-1.59206 -0.77508104 2.4945667
-0.41617131 -0.75379682 2.478898
-0.37846494 -0.74795222 2.4292624
-1.7276636 -0.64556623 2.4212232
-1.6627572 -0.65388083 2.4700811
-0.40792027 -0.66808403 2.4896159
-0.3685247 -0.64742303 2.4414818
-1.8003106 -0.50408697 2.4004142
-1.7437652 -0.54708898 2.4338005
-1.6782922 -0.55702251 2.482686
-0.35581678 -0.55049443 2.449028
-1.8118687 -0.43586987 2.4087951
-1.7515321 -0.45062 2.4524093
-1.6912625 -0.47394335 2.493777
-0.33758986 -0.45103383 2.4497371
-0.29422861 -0.40831432 2.401866
-1.826813 -0.34495768 2.4203427
-1.7618576 -0.35395235 2.4690583
-0.32772204 -0.35438335 2.4610603
-0.2896288 -0.33852765 2.4134603
-1.8425078 -0.2467418 2.4331715
-1.7767884 -0.25724852 2.4820995
-0.31880659 -0.25414816 2.4745927
-0.28105456 -0.24661212 2.4253321
-1.9102641 -0.13442145 2.4087148
-1.8515402 -0.15127432 2.450526
-1.7904848 -0.17301409 2.4929156
-0.31015521 -0.16267888 2.4862449
-0.27124706 -0.14695671 2.4375083
-1.9167894 -0.048446704 2.4256108
-1.8602475 -0.055829987 2.4681296
-0.30592501 -0.096771017 2.4973474
-0.26149306 -0.051794644 2.4486029
-1.9230325 0.05146005 2.4462972
-1.87632 0.043340761 2.4809074
-0.24325451 0.048615582 2.4495416
-0.19802596 0.096012585 2.4003146
-1.9295976 0.15257981 2.4670403
-1.8905072 0.13265006 2.4926355
-0.23106682 0.14864282 2.4585838
-0.19317469 0.16022891 2.410166
-1.9450057 0.24775147 2.4793141
-0.22014022 0.24617155 2.4686987
-0.18284255 0.25671315 2.4208188
-1.967075 0.34651154 2.4872744
-0.21241857 0.34329396 2.4830554
-0.1743958 0.35331494 2.4340589
-1.9872591 0.43655214 2.4944754
-0.20669575 0.41874155 2.4945846
-0.16542231 0.45176312 2.4470575
-0.1484855 0.54970616 2.4491279
-0.13267842 0.64756238 2.4527082
-0.094270393 0.67193568 2.4068589
-0.12454139 0.74667346 2.4670095
-0.086701281 0.75512123 2.4178593
-0.11584134 0.84439284 2.4801922
-0.078151301 0.85296917 2.431278
-1.9362395 0.94025725 2.4617071
-1.850319 0.94328159 2.4499021
-1.7500864 0.94336116 2.4495904
-1.6507064 0.94315845 2.450381
-1.5504447 0.94331986 2.449755
-1.4499667 0.9431178 2.4505417
-1.3502913 0.9432925 2.449858
-1.2497824 0.94329542 2.449851
-1.1498351 0.94321573 2.4501679
-1.049888 0.94326872 2.4499617
-0.94993693 0.94326973 2.4499595
-0.85054868 0.94324213 2.4500623
-0.75059122 0.94322801 2.4501202
-0.65008765 0.94330955 2.4498029
-0.54985988 0.94324112 2.4500628
-0.45019421 0.9432559 2.4500108
-0.35023695 0.94330859 2.4498041
-0.25029293 0.94320142 2.4502227
-0.14917545 0.94196045 2.4514148
-0.073079407 0.93451989 2.4324615
-1.3182576 -1.5074599 2.5220523
-1.249295 -1.5235035 2.5721104
-0.62864518 -1.5226636 2.5704651
-0.58778417 -1.5071971 2.5190086
-1.3337635 -1.4460353 2.5256042
-1.2685496 -1.4547257 2.5746017
-0.61905879 -1.4534558 2.5751555
-0.58087564 -1.44706 2.5250156
-1.4048808 -1.3157037 2.5031309
-1.3479311 -1.3482579 2.5395219
-1.2838885 -1.3590056 2.5870697
-0.60970902 -1.3590311 2.5866158
-0.57153511 -1.3475291 2.5377936
-1.4166704 -1.240748 2.513062
-1.3532993 -1.2517385 2.560024
-1.2953774 -1.2840114 2.5972514
-0.60367954 -1.2884923 2.5964711
-0.55996424 -1.2487816 2.5473454
-1.4325964 -1.145682 2.5248995
-1.3674829 -1.154199 2.5738621
-0.54281789 -1.1496409 2.5494378
-1.5037752 -1.0136371 2.5028179
-1.4472064 -1.04786 2.5384798
-1.3829331 -1.0584008 2.5862622
-0.53066856 -1.0531503 2.5576301
-0.49247298 -1.032322 2.5111632
-1.5158803 -0.94010139 2.5121381
-1.4527174 -0.95150012 2.5588322
-1.3947196 -0.98542857 2.5956974
-0.52090013 -0.95361203 2.5698271
-0.48328495 -0.94448072 2.5211582
-1.5315119 -0.84577036 2.5240204
-1.4665102 -0.85397327 2.5729785
-0.51202768 -0.85410947 2.5832329
-0.4742963 -0.84791052 2.5336554
-1.6032684 -0.71047628 2.5023155
-1.5466233 -0.74789333 2.537221
-1.4819113 -0.75714004 2.5856836
-0.50532931 -0.77202868 2.595134
-0.464753 -0.74813288 2.5462193
-1.614856 -0.63877952 2.5115719
-1.5519189 -0.65171069 2.5576971
-1.4940634 -0.68132645 2.5955572
-0.4483161 -0.6496433 2.5491054
-1.6305372 -0.5454405 2.5231636
-1.5656599 -0.55430281 2.5718517
-0.4326461 -0.55275738 2.5526249
-0.39287597 -0.52156448 2.506675
-1.7025245 -0.40780386 2.501874
-1.6459032 -0.44751367 2.5361762
-1.5807343 -0.45713291 2.5848975
-0.42459565 -0.45314586 2.5671711
-0.38662216 -0.44482678 2.5178087
-1.7144263 -0.33688098 2.5106845
-1.6518197 -0.35145655 2.5561275
-1.5935938 -0.37804094 2.5950563
-0.41526648 -0.35749659 2.5789709
-0.37719822 -0.34516338 2.5305037
-1.7297562 -0.24451366 2.5223017
-1.6643875 -0.25430557 2.5711403
-0.40675235 -0.26182276 2.5918813
-0.36737311 -0.24746974 2.5421548
-1.8011621 -0.10631691 2.5016141
-1.7452549 -0.14619531 2.5353124
-1.6801792 -0.1570324 2.5836496
-0.35358405 -0.14902259 2.5486231
-1.812575 -0.039145645 2.5098505
-1.7510893 -0.051587682 2.5549603
-1.6926379 -0.078041688 2.5940959
-0.33648431 -0.051529612 2.5503573
-0.29408249 -0.012510989 2.5028296
-1.8274586 0.052140716 2.5215402
-1.7630323 0.044220008 2.5701199
-0.32708088 0.0449563 2.5622718
-0.28947872 0.057232548 2.5144212
-1.9004045 0.19379124 2.5005322
-1.8436644 0.15189905 2.534364
-1.7788079 0.14285025 2.5829904
-0.3173674 0.14783415 2.5753982
-0.28051245 0.1510537 2.5262465
-1.9117626 0.26285636 2.5092933
-1.8516933 0.24933623 2.5530136
-1.7916651 0.22399718 2.5936778
-0.30909136 0.23897098 2.5874724
-0.27024412 0.25256923 2.5382726
-1.9267374 0.35406765 2.5208931
-1.8622855 0.34618616 2.5694983
-0.30544278 0.30544278 2.5995131
-0.25936043 0.34994149 2.5484047
-1.9430819 0.45274046 2.5333247
-1.8775647 0.44374275 2.5824823
-0.24120322 0.44963202 2.5492694
-2.0048871 0.56249321 2.5128853
-1.9508786 0.54930562 2.5519328
-1.8908855 0.52686679 2.5933113
-0.22874032 0.54642254 2.5571113
-0.19059765 0.56529778 2.5102172
-2.0110824 0.65594459 2.5319579
-1.961313 0.64603931 2.5685132
-0.22072338 0.64496326 2.5714309
-0.18296255 0.65582573 2.5230031
-2.0170825 0.7531867 2.5521493
-1.976675 0.74406254 2.5815537
-0.21300736 0.7419402 2.5857561
-0.1743305 0.75287217 2.5361071
-2.0236542 0.8519631 2.5722888
-1.9904783 0.82935536 2.5925589
-0.20256387 0.82485092 2.5927896
-0.16230372 0.85225505 2.5452042
-2.022052 0.91340482 2.5609188
-1.9495842 0.91784394 2.5491638
-1.8497244 0.91769296 2.5497558
-1.7495327 0.91784418 2.5491662
-1.6503663 0.91765285 2.5499105
-1.5512657 0.91784406 2.5491655
-1.4503106 0.91778725 2.5493865
-1.3497684 0.9178248 2.5492408
-1.2499092 0.9177686 2.5494599
-1.1497135 0.91780722 2.5493193
-1.0495042 0.91777152 2.5494692
-0.94965267 0.91780812 2.5493248
-0.85015452 0.91773379 2.5496137
-0.75030673 0.91784656 2.5491753
-0.64974719 0.91775209 2.549545
-0.54989344 0.91782916 2.5492423
-0.45003751 0.91773289 2.5496171
-0.34983981 0.91784698 2.5491734
-0.24962594 0.91777056 2.5494738
-0.16423094 0.91787225 2.5377588
-1.1008664 -1.6012603 2.6687672
-1.0733968 -1.608371 2.6885386
-0.731327 -1.6082165 2.6878295
-1.207145 -1.520665 2.6059504
-1.1467888 -1.5428247 2.6476774
-1.086785 -1.5625578 2.6897542
-0.71538717 -1.555146 2.6797802
-0.67752749 -1.5380037 2.6328251
-1.2201672 -1.4429283 2.6156294
-1.1560076 -1.4528387 2.663486
-1.0994966 -1.4907265 2.6981514
-0.70676899 -1.4654385 2.6910264
-0.66748357 -1.447341 2.6423817
-1.236249 -1.3466811 2.6276476
-1.171272 -1.3543665 2.6767151
-0.65413046 -1.3488578 2.6494513
-1.3060116 -1.2216682 2.6048689
-1.2490804 -1.2490886 2.6425629
-1.1857828 -1.2610785 2.6892128
-0.63678694 -1.2500762 2.6511834
-0.59655797 -1.2245691 2.6031556
-1.319243 -1.1426963 2.6147044
-1.2550657 -1.1526717 2.6625555
-1.1977441 -1.1954975 2.696615
-0.62670976 -1.1530176 2.6623299
-0.58962899 -1.1413716 2.6150272
-1.3351496 -1.0465047 2.6268468
-1.2699453 -1.0543002 2.6760645
-0.61810458 -1.0564551 2.6753421
-0.58024907 -1.0450205 2.6269348
-1.4053406 -0.91691828 2.6049027
-1.3488382 -0.9488501 2.6411059
-1.2849445 -0.95992023 2.6884573
-0.60852706 -0.96152788 2.6866212
-0.5703463 -0.94687068 2.6385946
-1.4182715 -0.84211242 2.6139047
-1.3539921 -0.85255027 2.6617231
-1.2962632 -0.89170557 2.6970413
-0.60029668 -0.87346399 2.6979625
-0.5588156 -0.84945977 2.6478612
-1.4339899 -0.74630612 2.6260974
-1.3692665 -0.75448364 2.6748419
-0.54116672 -0.74989343 2.6493824
-1.5045147 -0.61552835 2.604203
-1.4485426 -0.64851165 2.6397154
-1.3839737 -0.65981799 2.6875341
-0.52994949 -0.65347701 2.6588173
-0.49262553 -0.63718164 2.6123724
-1.5173687 -0.54119921 2.6131406
-1.4536177 -0.55221832 2.660392
-1.3960241 -0.58974546 2.6960106
-0.52018619 -0.55569041 2.6705751
-0.48203388 -0.54355443 2.6219435
-1.5326511 -0.44604278 2.6255045
-1.4678676 -0.4542549 2.6742899
-0.51141113 -0.45465109 2.6845047
-0.47334364 -0.44790539 2.6346107
-1.6033771 -0.31644279 2.6031511
-1.547882 -0.34803677 2.6386437
-1.4830884 -0.35834479 2.6869013
-0.50514191 -0.38389689 2.6940904
-0.46375638 -0.34834862 2.6470597
-1.6163476 -0.2411636 2.6122415
-1.5525488 -0.25144261 2.6597202
-1.4951328 -0.2844592 2.6963677
-0.44663051 -0.24979077 2.6490324
-1.6316285 -0.1468434 2.6243978
-1.5674874 -0.15358347 2.6730499
-0.43359053 -0.15346484 2.655973
-0.39518249 -0.13215271 2.6093431
-1.7032373 -0.011384011 2.602849
-1.6468936 -0.050328914 2.637126
-1.5822425 -0.058728147 2.6857545
-0.42248315 -0.056036506 2.6658163
-0.38533714 -0.045623463 2.6181102
-1.7153779 0.060051855 2.6116006
-1.6531398 0.046892744 2.6571238
-1.5942599 0.015866028 2.695426
-0.41491085 0.043597586 2.6810174
-0.3768678 0.051202081 2.631377
-1.7304809 0.15509829 2.6240842
-1.6654139 0.14529659 2.6726801
-0.40561029 0.12823017 2.6900401
-0.36645997 0.1535155 2.6434178
-1.8031428 0.29141885 2.6019387
-1.7466668 0.2524448 2.6363041
-1.6807696 0.24148089 2.6852531
-0.35213622 0.25020915 2.6487134
-1.8146873 0.36184368 2.6108921
-1.7522027 0.34854373 2.65657
-1.6941699 0.31984073 2.694797
-0.33592832 0.34888873 2.6519601
-0.29617336 0.37103438 2.6037185
-1.8293598 0.45438626 2.6230705
-1.7649537 0.44603005 2.6715229
-0.32558307 0.44587913 2.6627254
-0.28765604 0.46005052 2.6149194
-1.901947 0.5963918 2.6024384
-1.8456357 0.55247962 2.6354132
-1.7803354 0.5432291 2.6843376
-0.31834611 0.54390466 2.6779699
-0.28018802 0.55476499 2.6290047
-1.9137233 0.66175455 2.6099212
-1.8518076 0.64912504 2.6553185
-1.7927507 0.62096673 2.6944981
-0.30687913 0.63832831 2.6865566
-0.26856259 0.65379101 2.6385539
-1.9285548 0.75424331 2.6219625
-1.8639575 0.74616075 2.6706288
-0.3035467 0.70153016 2.6981928
-0.25801757 0.75046432 2.6489682
-2.0024352 0.89719498 2.6005652
-1.9441376 0.85451394 2.63324
-1.8643235 0.86223191 2.6703038
-1.7494743 0.89014059 2.6572845
-1.6484375 0.89024687 2.6568649
-1.5478177 0.89011306 2.6573904
-1.4486331 0.89019722 2.6570647
-1.3499529 0.89016843 2.6571748
-1.2503048 0.89019412 2.6570737
-1.1497172 0.89016753 2.6571779
-1.049597 0.89011335 2.6573911
-0.94994491 0.89011329 2.6573894
-0.84935945 0.890221 2.6569715
-0.74922961 0.8901971 2.6570642
-0.65006751 0.89011335 2.6573901
-0.54994571 0.8901673 2.6571791
-0.44935352 0.89019412 2.6570733
-0.34923294 0.89011294 2.6573892
-0.24837038 0.86159527 2.6485395
-0.19508916 0.89741015 2.6011889
-2.0032759 0.9040758 2.6016569
-1.9491174 0.90285224 2.6075344
-1.8497983 0.90292311 2.6074371
-1.7503527 0.9028784 2.6076114
-1.6493076 0.90287882 2.6076119
-1.5482627 0.9028784 2.6076117
-1.4504771 0.90287888 2.6076114
-1.3510275 0.90292341 2.6074367
-1.2500515 0.90283418 2.6077859
-1.150602 0.90287888 2.6076114
-1.0511723 0.90292317 2.6074374
-0.95015603 0.90283358 2.6077859
-0.84909594 0.90292341 2.6074376
-0.74968833 0.902879 2.6076117
-0.65026075 0.90283436 2.6077857
-0.54924059 0.90292311 2.6074371
-0.44981301 0.90287876 2.6076114
-0.35036525 0.90283358 2.6077857
-0.24938317 0.90291405 2.607409
-0.19516525 0.90426564 2.6022034
-1.0258422 -1.6171842 2.7236288
-0.95713633 -1.6341891 2.7732444
-0.81178719 -1.6419109 2.7883129
-0.77590555 -1.6227996 2.7445443
-1.0396503 -1.5464263 2.7309067
-0.97424698 -1.555315 2.7800057
-0.80287683 -1.5778037 2.7926149
-0.76262045 -1.5475312 2.7457726
-1.1084188 -1.4286727 2.7070541
-1.0504059 -1.4498171 2.7472034
-0.98926646 -1.4658711 2.7911186
-0.74711579 -1.4494541 2.7498207
-1.1225796 -1.3442303 2.7175601
-1.0580856 -1.3533922 2.7658689
-0.73204422 -1.3515035 2.7544212
-0.69451684 -1.3324269 2.7084153
-1.138564 -1.2464023 2.7300611
-1.0730472 -1.2551663 2.7792754
-0.72305292 -1.2527542 2.7674694
-0.68599236 -1.2452962 2.7191226
-1.2084767 -1.1244378 2.7063816
-1.1501637 -1.1498476 2.7456796
-1.0881052 -1.1643153 2.7907155
-0.71446276 -1.157431 2.7801883
-0.6761471 -1.1467365 2.7309678
-1.2217124 -1.0435258 2.7167091
-1.1573464 -1.0531887 2.7647965
-1.0986977 -1.0986977 2.7992299
-0.70664638 -1.0748848 2.7906892
-0.66689289 -1.0465055 2.7440407
-1.2376107 -0.94653291 2.7290652
-1.1723379 -0.95458001 2.7782769
-0.65235168 -0.94971734 2.7490649
-1.3073292 -0.82277918 2.7060022
-1.2498696 -0.84981948 2.7442064
-1.1873236 -0.86291504 2.7899797
-0.63526458 -0.85176998 2.7509329
-0.59511179 -0.81826752 2.7050531
-1.3207308 -0.74381715 2.7156954
-1.2563506 -0.75332302 2.7638311
-1.1966901 -0.79779345 2.7992752
-0.62593174 -0.7516256 2.763876
-0.5883708 -0.74498475 2.714642
-1.3364007 -0.64617991 2.7283943
-1.2711185 -0.65455836 2.7775292
-0.61699349 -0.65257066 2.7770779
-0.57900023 -0.64738911 2.7268841
-1.4068252 -0.51982278 2.7054441
-1.3494906 -0.54926884 2.7429352
-1.2865924 -0.56115735 2.7892981
-0.60921121 -0.56567591 2.7887368
-0.57027429 -0.54644364 2.7408562
-1.4194988 -0.44252437 2.715287
-1.3551624 -0.45307523 2.763119
-1.2973039 -0.49654311 2.797426
-0.60126221 -0.49289376 2.7965684
-0.55756778 -0.44883418 2.7485783
-1.4350327 -0.34604272 2.7277963
-1.3702438 -0.35510951 2.7763627
-0.5399341 -0.35031995 2.7498503
-0.49970973 -0.32751107 2.7011337
-1.5060526 -0.21931061 2.704478
-1.4489263 -0.24893324 2.741756
-1.3855989 -0.26136416 2.7883132
-0.52885312 -0.25383642 2.7594886
-0.49070054 -0.23676822 2.7121165
-1.5190367 -0.14208923 2.7140539
-1.4552705 -0.15238434 2.7615032
-1.397534 -0.18745518 2.7978675
-0.51911598 -0.15392409 2.7718251
-0.48131895 -0.14483246 2.7228985
-1.5339494 -0.047544401 2.7265544
-1.4691104 -0.055995151 2.7753215
-0.51138479 -0.057265431 2.7860496
-0.47326788 -0.049090642 2.7364554
-1.6050403 0.079412624 2.7032287
-1.5480282 0.049511615 2.7403512
-1.4838779 0.038970049 2.7880378
-0.50284302 0.017477086 2.7935719
-0.46263057 0.049768586 2.7473011
-1.6174308 0.15792492 2.7136066
-1.5539767 0.14733435 2.7607336
-1.4955077 0.11331926 2.7979577
-0.44456121 0.14961597 2.7483249
-1.633494 0.25445125 2.7257121
-1.5682387 0.24530505 2.7746263
-0.43198273 0.24883245 2.756628
-0.39333805 0.26039591 2.7071843
-1.704661 0.38663253 2.7036703
-1.6478314 0.3515918 2.7393308
-1.5834481 0.34164083 2.7873542
-0.42243284 0.34528598 2.7683365
-0.38528106 0.35738358 2.7210524
-1.7168235 0.45971429 2.7128303
-1.6533692 0.44768175 2.7595923
-1.5955706 0.41331407 2.7961876
-0.41278976 0.44389963 2.7804697
-0.37464929 0.45345098 2.7311933
-1.7323222 0.55435771 2.7248986
-1.6674247 0.54515553 2.773519
-0.4068048 0.52232057 2.7923973
-0.36652103 0.5528847 2.7455885
-1.8042269 0.68926036 2.7029662
-1.7478834 0.65188414 2.7376561
-1.6831253 0.64256781 2.7861338
-0.35081735 0.65011364 2.7491498
-1.8159112 0.76012516 2.7119448
-1.7525064 0.74813086 2.7586756
-1.6950407 0.71945947 2.7964716
-0.33507854 0.74715406 2.7526135
-0.29575062 0.77761585 2.7070746
-1.8288959 0.84497344 2.7203848
-1.7559237 0.84649795 2.7572811
-1.6497774 0.86632848 2.7502241
-1.5500482 0.86633122 2.7502146
-1.4507487 0.86623687 2.7505832
-1.3499135 0.86637545 2.750042
-1.2502096 0.86637706 2.7500341
-1.1501327 0.86628354 2.7504077
-1.0496762 0.86632973 2.7502306
-0.94998401 0.86628574 2.7504025
-0.84990442 0.86637712 2.7500455
-0.7498185 0.86633217 2.7502217
-0.65012729 0.86630648 2.7503235
-0.55004698 0.86637777 2.7500429
-0.44997174 0.86630923 2.7503111
-0.34653151 0.85540301 2.7502224
-0.289691 0.84787345 2.7132421
-0.85744673 -1.7007208 2.8345346
-0.91163826 -1.6325158 2.8094115
-0.86642271 -1.6463606 2.8298905
-0.92622381 -1.5440662 2.8206084
-0.85965472 -1.549592 2.848932
-0.79907441 -1.5140318 2.8037701
-0.94283462 -1.4467549 2.8324859
-0.85700935 -1.4527661 2.8699684
-0.79085523 -1.4364492 2.812453
-1.0107431 -1.3338006 2.8080735
-0.95055288 -1.350592 2.851053
-0.84518296 -1.3605547 2.8799486
-0.78213805 -1.3438993 2.8242881
-1.0249037 -1.2445034 2.819824
-0.96033013 -1.2536011 2.868217
-0.81149977 -1.260972 2.8852992
-0.7721386 -1.2455401 2.8358719
-1.0417665 -1.1468935 2.8315771
-0.97668916 -1.1556633 2.8804479
-0.80267209 -1.1859173 2.8925121
-0.7622636 -1.1474721 2.8475494
-1.1101825 -1.0307349 2.8075876
-1.0505365 -1.0506947 2.8493266
-0.99019986 -1.0657173 2.8928702
-0.74498779 -1.0499461 2.8490555
-1.1238306 -0.94421226 2.8190336
-1.0590477 -0.95384032 2.8674502
-0.73161876 -0.95405644 2.8554385
-0.69365203 -0.92966694 2.8101907
-1.1405871 -0.84633356 2.8309362
-1.0752834 -0.85574597 2.8798237
-0.72223961 -0.85513872 2.8680077
-0.68467045 -0.84394115 2.8199253
-1.2102289 -0.72687209 2.8068299
-1.1506214 -0.74989754 2.8477571
-1.0896717 -0.76654667 2.8913667
-0.7131114 -0.75513089 2.8811932
-0.67513329 -0.74639839 2.8319287
-1.2226555 -0.64401191 2.8182952
-1.1578567 -0.65343511 2.86678
-0.70454925 -0.6618588 2.8934245
-0.66574192 -0.64769167 2.8444266
-1.2392683 -0.54659849 2.8301966
-1.1742365 -0.55550188 2.8789973
-0.65062732 -0.54958236 2.84901
-1.3082895 -0.42547631 2.8070073
-1.250165 -0.44995567 2.8463919
-1.1884384 -0.46726191 2.8904395
-0.63498741 -0.45235288 2.8526573
-0.59581506 -0.41942158 2.8079548
-1.3224257 -0.34370983 2.8168468
-1.2568504 -0.35334021 2.865886
-0.62524259 -0.35286492 2.864877
-0.58759302 -0.34530112 2.8157585
-1.3377994 -0.24685174 2.8295765
-1.273295 -0.25449312 2.8782854
-0.61612403 -0.2522921 2.8782194
-0.57878256 -0.24847484 2.8285618
-1.4074945 -0.12653089 2.8056514
-1.3491485 -0.14969517 2.8455436
-1.2877638 -0.16313083 2.8903172
-0.60790384 -0.16074325 2.8904753
-0.56998557 -0.14813574 2.8422823
-1.4210265 -0.046307545 2.8155668
-1.3570224 -0.054255597 2.8638039
-0.60150093 -0.09421099 2.8987997
-0.55626535 -0.051689025 2.8483324
-1.4370723 0.052978747 2.8283958
-1.3712254 0.042043012 2.8773134
-0.53902578 0.046590324 2.8500793
-0.49783966 0.087655246 2.8047304
-1.5074683 0.1786588 2.8052893
-1.4501497 0.15153669 2.8433657
-1.3866978 0.13512701 2.8890026
-0.52751374 0.14782129 2.8603456
-0.48986766 0.15863322 2.8120642
-1.5198042 0.2564559 2.8155229
-1.4552839 0.24740784 2.863889
-1.3983438 0.20649204 2.8981218
-0.52013046 0.24555385 2.8753164
-0.48243719 0.2537573 2.826304
-1.5358472 0.35346159 2.8277693
-1.4701841 0.34510231 2.877208
-0.50951165 0.33954492 2.8849461
-0.47109556 0.35306352 2.8363101
-1.6064906 0.48269838 2.8053875
-1.5491276 0.45103881 2.8423319
-1.486195 0.43826985 2.8884957
-0.50730687 0.40584549 2.8988965
-0.46173146 0.4505184 2.8485229
-1.6192697 0.55840015 2.8147371
-1.5551865 0.54714274 2.8621876
-1.4970787 0.50707424 2.8975739
-0.44397178 0.54982048 2.8498259
-0.39907697 0.59511477 2.8005402
-1.6346788 0.65345573 2.8269789
-1.5695418 0.64498645 2.8759706
-0.42978865 0.64742869 2.855546
-0.39231563 0.66387844 2.8089352
-1.7062634 0.78275031 2.8038623
-1.6489475 0.75112611 2.8407824
-1.5846946 0.73904818 2.888159
-0.42265159 0.74474072 2.870744
-0.38482404 0.75693667 2.8225677
-1.7128905 0.82989025 2.8101199
-1.6486555 0.82859707 2.8476372
-1.5515356 0.83938885 2.8520601
-1.4499376 0.84069592 2.8502548
-1.3496761 0.84079593 2.8498638
-1.2494285 0.84086519 2.8495922
-1.1496807 0.84069622 2.8502576
-1.0499302 0.84079975 2.8498642
-0.95017803 0.84069777 2.8502603
-0.84992331 0.84079796 2.8498726
-0.74965566 0.84069788 2.8502607
-0.64990324 0.84086746 2.8495965
-0.55016071 0.84069759 2.8502607
-0.44653991 0.8378737 2.8524079
-0.37859371 0.83193088 2.8265128
-0.86092365 -1.4169216 2.9040391
-0.86740643 -1.3411535 2.9133635
-0.91244352 -1.2384403 2.9097104
-0.8659457 -1.2481509 2.9310739
-0.92785978 -1.1451839 2.9214866
-0.85894299 -1.1495442 2.9509604
-0.79873174 -1.1182201 2.9044788
-1.0008718 -1.0008718 2.9010777
-0.9438206 -1.0474116 2.9339902
-0.85689837 -1.0539297 2.9718914
-0.79031169 -1.0359071 2.9141009
-1.0121429 -0.93469995 2.9091954
-0.95143539 -0.95087928 2.9527357
-0.84242564 -0.96216053 2.9793661
-0.78129357 -0.94255513 2.9257352
-1.0267184 -0.84424716 2.9209116
-0.96157992 -0.85355306 2.9696951
-0.81061578 -0.86188996 2.9861169
-0.77174777 -0.84622484 2.9374156
-1.0434687 -0.74669594 2.9327419
-0.97767621 -0.7562378 2.981977
-0.80136043 -0.77513921 2.9957399
-0.7603417 -0.74892819 2.9468222
-1.1113003 -0.63278282 2.9086411
-1.0510699 -0.65024024 2.9514768
-0.99066925 -0.6734041 2.9929864
-0.74363458 -0.65018761 2.9494076
-1.1260448 -0.54447973 2.9196768
-1.0609945 -0.55322695 2.9685297
-0.73073786 -0.55223995 2.95696
-0.69291747 -0.54105306 2.9085348
-1.1424162 -0.44659892 2.9318862
-1.0763024 -0.4559162 2.9814296
-0.72232491 -0.45392621 2.9706812
-0.68454278 -0.44501042 2.9217286
-1.2102668 -0.33142096 2.9080873
-1.1510259 -0.3502588 2.9497962
-1.0897497 -0.37155256 2.9924757
-0.71347302 -0.36117625 2.9823871
-0.67541295 -0.34522101 2.9348593
-1.2247064 -0.24548471 2.9187582
-1.1593537 -0.25331438 2.9680827
-0.70454353 -0.27745715 2.9916813
-0.66451424 -0.24749784 2.9450607
-1.2410166 -0.14663339 2.9312639
-1.1755798 -0.15556203 2.9803751
-0.64852417 -0.1502841 2.94823
-1.3089356 -0.032948896 2.9070308
-1.2508531 -0.051618923 2.947875
-1.1895349 -0.067097627 2.9920747
-0.63434643 -0.054434221 2.9535065
-0.59513384 -0.026331797 2.9075162
-1.3229573 0.053642027 2.918196
-1.2583686 0.044750873 2.966656
-0.62454766 0.045731913 2.9658229
-0.58712661 0.052400582 2.9167869
-1.340037 0.15339307 2.93033
-1.2745668 0.14405915 2.9793699
-0.61589855 0.14599222 2.9797256
-0.57785124 0.1523028 2.9297459
-1.4083122 0.27221498 2.90714
-1.3495365 0.25036919 2.9477072
-1.2882055 0.23290095 2.9914107
-0.60753822 0.22590913 2.9888153
-0.56853658 0.25419334 2.9431624
-1.4225422 0.35666594 2.9175928
-1.3583359 0.34668583 2.965467
-0.55484807 0.34955022 2.948976
-1.4382788 0.45304361 2.9299138
-1.3731818 0.44446862 2.978848
-0.53673875 0.44913697 2.9498768
-0.49341419 0.49341419 2.9024365
-1.5078747 0.57399607 2.9062262
-1.44995 0.55036503 2.9456675
-1.3877457 0.53632468 2.9909348
-0.52802008 0.54599398 2.9628112
-0.49040565 0.55967182 2.915302
-1.5215077 0.65739733 2.916877
-1.4566783 0.64664328 2.9650452
-0.51723337 0.64541584 2.9735994
-0.47930059 0.6546098 2.9245157
-1.5379028 0.75403899 2.9287536
-1.472614 0.74453479 2.9775999
-0.51034766 0.73879516 2.9881346
-0.47157323 0.75170887 2.9388587
-1.543897 0.81621224 2.9263585
-1.4484751 0.81514788 2.9493508
-1.3507168 0.81508523 2.9501865
-1.250675 0.81506526 2.9502637
-1.1501852 0.81503236 2.9503922
-1.0496855 0.81500304 2.9505258
-0.95011109 0.81507152 2.950263
-0.85054749 0.81500226 2.950536
-0.75050205 0.81502074 2.9504647
-0.65046036 0.81516618 2.949894
-0.54950041 0.81493282 2.9506464
-0.46931753 0.81740093 2.9292026
-0.86152852 -1.0188 3.0053446
-0.90211314 -0.90961689 3.0020435
-0.86729968 -0.94315916 3.0146859
-0.91352946 -0.83808625 3.0114012
-0.86537266 -0.8486948 3.0328422
-0.92908907 -0.74487144 3.0230546
-0.85852623 -0.75031298 3.0526471
-0.79618359 -0.71355623 3.0044668
-1.005138 -0.60008246 3.0004122
-0.94568861 -0.64669681 3.0351601
-0.85664463 -0.65406567 3.0734057
-0.78931105 -0.64427835 3.0128534
-1.0132735 -0.53972435 3.0094681
-0.95170939 -0.55032831 3.0551081
-0.83777869 -0.55880606 3.0800753
-0.78020817 -0.54715699 3.0253389
-1.0276645 -0.44573972 3.0222392
-0.96334851 -0.45304891 3.0708833
-0.80905926 -0.45506373 3.0880001
-0.7713328 -0.44836408 3.0385561
-1.1027278 -0.300062 3.0006199
-1.0448867 -0.34716538 3.0339587
-0.97896719 -0.35587773 3.0835049
-0.80567366 -0.39508998 3.0987449
-0.759839 -0.34928286 3.0482996
-1.1126658 -0.23512655 3.009414
-1.0506067 -0.25138554 3.0539992
-0.99279767 -0.27075183 3.094445
-0.74277687 -0.25056317 3.0503993
-0.69792175 -0.20262244 3.0018139
-1.1269374 -0.14628819 3.0209575
-1.0626806 -0.15416931 3.0694156
-0.72976589 -0.1525176 3.0578177
-0.69164395 -0.14055796 3.0091817
-1.14262 -0.050115805 3.0332713
-1.0779409 -0.057497974 3.0821896
-0.72063208 -0.054357573 3.0705252
-0.68367529 -0.049486607 3.0216582
-1.2113693 0.065164939 3.0087993
-1.1513318 0.048020888 3.0515664
-1.0907642 0.025998322 3.0935071
-0.71286696 0.039176412 3.0839055
-0.67448461 0.052345011 3.0352283
-1.2260637 0.15605156 3.0205371
-1.1610734 0.14705651 3.0692797
-0.70471114 0.11709512 3.0927651
-0.66339111 0.15346469 3.0460334
-1.2417339 0.25318715 3.0331097
-1.1765798 0.24412382 3.0819609
-0.64712059 0.25027189 3.0487156
-1.3116065 0.3686837 3.0078025
-1.2515607 0.34915569 3.049968
-1.1902283 0.32891712 3.0929563
-0.63212937 0.34731427 3.0531924
-0.59234047 0.38014519 3.0076358
-1.3251323 0.45544848 3.0194027
-1.2600228 0.4461388 3.0681579
-0.62358785 0.44759181 3.067245
-0.58626932 0.45490661 3.018513
-1.3406868 0.55279022 3.0321162
-1.2760189 0.54398912 3.0806551
-0.6158967 0.5405733 3.0805824
-0.57769251 0.55451459 3.0323434
-1.4102923 0.67045146 3.0075781
-1.3508945 0.64966863 3.0489125
-1.2898246 0.63221508 3.0924072
-0.60568684 0.63482708 3.0908298
-0.56660718 0.65180814 3.0421822
-1.4238228 0.75735813 3.0178621
-1.3543649 0.75459951 3.05953
-1.2501273 0.78927541 3.0509374
-1.149704 0.78941739 3.0503774
-1.0499314 0.78929806 3.0508444
-0.95014876 0.7893703 3.0505626
-0.85036433 0.789298 3.0508451
-0.75057346 0.78941733 3.0503786
-0.65017378 0.78932267 3.0507469
-0.5580321 0.76103163 3.0443554
-0.86213267 -0.62239093 3.1051526
-0.90310711 -0.51051992 3.1034691
-0.86811668 -0.54547882 3.1159492
-0.91512257 -0.44197911 3.111598
-0.86492497 -0.44844863 3.1346617
-0.93072903 -0.3470895 3.1236424
-0.85841721 -0.3479749 3.1552384
-0.79720116 -0.33168048 3.1034575
-1.0026327 -0.20750801 3.1029298
-0.94662237 -0.24896722 3.1362917
-0.85630584 -0.25448471 3.1748652
-0.78891659 -0.24109195 3.1153855
-1.0151552 -0.13663954 3.1112325
-0.95150054 -0.15136014 3.1574614
-0.83400983 -0.16406231 3.1800659
-0.77956206 -0.14278491 3.1278281
-1.0292082 -0.046110116 3.1233845
-0.96477079 -0.055473212 3.1715958
-0.80769807 -0.060715705 3.186955
-0.76970673 -0.048238847 3.1386292
-1.1010574 0.089171112 3.1015701
-1.0448143 0.05001688 3.135747
-0.97973067 0.039835632 3.1842592
-0.75956613 0.047435559 3.1493385
-1.1131047 0.16073862 3.1104603
-1.0519804 0.14872433 3.1553957
-0.99365216 0.12461589 3.1950333
-0.7415871 0.14919329 3.1509719
-0.69802809 0.19002056 3.1023469
-1.1283295 0.25460684 3.1225443
-1.0642383 0.24581394 3.1706331
-0.72798932 0.24728243 3.1576068
-0.69119716 0.25960064 3.1108649
-1.2016436 0.39537948 3.1010156
-1.1451389 0.35346851 3.1346622
-1.079924 0.34262058 3.1831052
-0.72070903 0.34745303 3.1733375
-0.68224818 0.35252526 3.1224856
-1.21299 0.46455407 3.1098189
-1.1510642 0.44923976 3.1545398
-1.0923407 0.42321646 3.1940017
-0.71150792 0.44278923 3.1852322
-0.67336559 0.45426989 3.1364472
-1.2279879 0.55546141 3.1213262
-1.1626252 0.54619998 3.1702929
-0.70226461 0.51873368 3.1921117
-0.66174716 0.55321681 3.1459866
-1.2436674 0.65290219 3.1339648
-1.1790234 0.64344031 3.1823196
-0.64625299 0.65047777 3.1498387
-1.3090973 0.75225186 3.1069639
-1.2490414 0.74191618 3.1418989
-1.1556778 0.75746852 3.1564164
-1.0496324 0.76398486 3.1496434
-0.9500795 0.76375693 3.1505346
-0.85107851 0.76394022 3.1498189
-0.75038064 0.76380259 3.1503544
-0.64912593 0.75212514 3.1451569
-0.5955736 0.7531997 3.1059754
-0.86279219 -0.22245193 3.2066784
-0.90633005 -0.11368909 3.2025833
-0.86937517 -0.14395979 3.217406
-0.91665626 -0.043716747 3.2124031
-0.86378461 -0.051595617 3.2357688
-0.93182987 0.053572148 3.2253997
-0.8572706 0.048907835 3.2559516
-0.79338545 0.088159129 3.2055979
-1.002515 0.18256937 3.2029264
-0.94661379 0.15201725 3.2390018
-0.85604477 0.14625287 3.2762082
-0.78851813 0.15238149 3.2154195
-1.0157213 0.26055834 3.212518
-0.95332479 0.24700366 3.2580588
-0.83220899 0.2399466 3.2811248
-0.77915543 0.25410062 3.2287276
-1.0311911 0.35502297 3.2245655
-0.96661633 0.3448793 3.2726912
-0.80792326 0.33065569 3.2873049
-0.76963484 0.35420009 3.2414041
-1.1046891 0.49230814 3.2019973
-1.0474402 0.4526538 3.2368069
-0.98140973 0.44066766 3.2856035
-0.80022413 0.4207364 3.2998934
-0.75716805 0.44927189 3.2488015
-1.1146331 0.55985767 3.2114847
-1.0522435 0.54863304 3.2576177
-0.99418759 0.51907283 3.2956548
-0.73962379 0.54918694 3.2505536
-0.6964345 0.58836901 3.2019978
-1.1306286 0.65397704 3.2230265
