# .PCD v0.7 - Point Cloud Data file format
VERSION 0.7
FIELDS x y z
SIZE 4 4 4
TYPE F F F
COUNT 1 1 1
WIDTH 1560
HEIGHT 1
VIEWPOINT 0 0 0 1 0 0 0
POINTS 1560
DATA ascii
0.55664963 0.48833138 2.7439997
0.58029836 0.48999682 2.744
0.6134212 0.49073693 2.744
0.64950478 0.49073693 2.744
0.67404169 0.48785025 2.7439997
0.70579523 0.48303911 2.7439997
0.73321879 0.48303911 2.744
0.76497233 0.49004966 2.744
0.79504198 0.48532441 2.7439997
0.82110232 0.48111469 2.7440002
0.88946062 0.48712856 2.7439997
1.019963 0.48111466 2.744
1.1234027 0.48532444 2.7439997
-1.3832047 0.53403723 2.744
-1.3655896 0.52550137 2.7440004
0.17560685 0.52200937 2.744
0.18667248 0.52056611 2.744
-1.3824028 0.54526329 2.7440002
-1.3683465 0.55582893 2.7439997
-1.3659074 0.58558524 2.7439997
-1.3852667 0.61032832 2.744
-1.3670529 0.61410856 2.7440004
-1.3648853 0.64494026 2.7440012
-1.38413 0.67615116 2.744
-1.3711767 0.67416191 2.7439997
-1.3827237 0.70290852 2.7439997
-1.3714597 0.7041254 2.7439997
-1.382002 0.7336998 2.7439997
-1.3721391 0.73514324 2.744
-1.3807991 0.75534999 2.7440002
-1.3623564 0.76417035 2.744
-1.347121 0.77940571 2.744
0.70964408 0.75775558 2.744
-1.3581866 0.79816926 2.7439997
-1.347121 0.78421688 2.744
-1.3807991 0.83232832 2.7440002
-1.3687712 0.82390893 2.7439997
0.66874933 0.81308377 2.744
-1.3861164 0.85461164 2.7439997
-1.3735824 0.85734624 2.7439997
0.7327376 0.86023301 2.7439997
-1.3853697 0.88452929 2.7439997
-1.3699741 0.88605279 2.744
0.72991961 0.88593835 2.744
-1.3853272 0.9172309 2.7439997
-1.3674349 0.91732526 2.7440002
0.72407758 0.91892904 2.744
-1.4207686 0.94779593 2.744
-1.3954996 0.94405365 2.7440009
-1.3674591 0.94232863 2.7439997
0.73129433 0.95741814 2.7440002
-1.455853 0.98051167 2.744
-1.4166154 0.97131711 2.7439997
-1.397638 0.97762495 2.7440007
0.72798663 0.97094947 2.7439997
-1.4509851 1.0120387 2.7439997
-1.4249741 1.0107781 2.7439997
-1.4014586 0.99845427 2.7439997
0.73129433 0.99350178 2.744
-1.4515228 1.0286232 2.7439997
-1.4855962 -1.0934143 2.7890003
-1.4534205 -1.0883473 2.7669992
-1.4229522 -1.0914937 2.7752492
-1.3971158 -1.0926099 2.7883723
-1.3726013 -1.0871025 2.7834997
-1.3252026 -1.0929254 2.7889998
-1.3070134 -1.0931494 2.7846005
-1.2783631 -1.0907729 2.767
-1.1168091 -1.093522 2.767
-1.1036097 -1.092446 2.7786469
-1.4772736 -1.067324 2.767
-1.4504812 -1.0669436 2.7677579
-1.4264269 -1.0624707 2.7774212
-1.3966737 -1.0690994 2.7834997
-1.3666252 -1.0623866 2.7858574
-1.3321304 -1.0611402 2.7890005
-1.3015836 -1.0611967 2.7776451
-1.2735116 -1.0551953 2.767
-1.2495363 -1.0617316 2.7707925
-1.110798 -1.0612435 2.7714002
-1.1038427 -1.0642636 2.771714
-1.4427067 -1.0400347 2.767
-1.4254682 -1.0371463 2.7713997
-1.3930244 -1.0368657 2.7828891
-1.3626363 -1.0327432 2.7791002
-1.3372395 -1.0365016 2.7890007
-1.3040541 -1.0341703 2.7871151
-1.2720391 -1.0360932 2.7761667
-1.2482588 -1.0368335 2.7758
-1.2239574 -1.0278193 2.767
-1.1168091 -1.0314231 2.7669997
-1.1004109 -1.0352591 2.7731597
-1.3829125 -1.0068145 2.7714002
-1.3731953 -1.0076066 2.778846
-1.3239492 -1.0104438 2.784111
-1.3075734 -1.0112461 2.7808521
-1.2751154 -1.0061089 2.7864122
-1.2460822 -1.00892 2.7669992
-1.2161877 -1.0057869 2.7669992
-1.1983138 -0.99455202 2.767
-1.1134131 -1.0188093 2.767
-1.0963149 -1.0097262 2.769444
-1.3907557 -0.98646617 2.767
-1.3629786 -0.97785908 2.7738745
-1.3365186 -0.97362888 2.7865555
-1.301592 -0.9720791 2.7773528
-1.2763815 -0.9729709 2.7798333
-1.2497395 -0.97708666 2.7669997
-1.2128682 -0.98060411 2.7669992
-1.1958882 -0.97757185 2.767
-1.1146792 -0.96454114 2.7714002
-1.1023582 -0.97512203 2.7731111
-1.3605112 -0.94536608 2.7756088
-1.3379445 -0.94172639 2.7751708
-1.3027581 -0.94429499 2.7727888
-1.2703415 -0.94395041 2.7747643
-1.2461355 -0.94083941 2.7669997
-1.2274227 -0.93148285 2.767
-1.1168501 -0.94436246 2.7726769
-1.1056432 -0.94637901 2.7779999
-1.3656868 -0.91680145 2.7769001
-1.3319025 -0.92158335 2.7873085
-1.3010401 -0.91625476 2.7729998
-1.2735118 -0.91601878 2.766999
-1.2451042 -0.91640675 2.7685707
-1.2185217 -0.91146195 2.7688327
-1.1905515 -0.90884274 2.7669997
-1.1178315 -0.9141711 2.7738745
-1.0998731 -0.91563934 2.781667
-1.3652654 -0.88530427 2.7785499
-1.3337471 -0.8814972 2.7848756
-1.3025019 -0.88082486 2.781667
-1.275068 -0.88320899 2.774117
-1.210096 -0.89544332 2.767
-1.1837595 -0.89509678 2.767
-1.1230824 -0.88729638 2.7878428
-1.1018906 -0.89650846 2.789
-1.3578736 -0.86140603 2.767
-1.3414587 -0.85468155 2.779
-1.302086 -0.85798091 2.7889998
-1.2754194 -0.85571313 2.7861311
-1.2461524 -0.84930581 2.7735999
-1.1761358 -0.85108697 2.767
-1.1692051 -0.85385925 2.767
-1.1172104 -0.85332251 2.7709999
-1.1040277 -0.84939742 2.7805386
-1.3369819 -0.82547426 2.7779999
-1.3070892 -0.82169682 2.7847421
-1.2767048 -0.82106608 2.7847419
-1.2465878 -0.81829864 2.7706661
-1.2029514 -0.81174773 2.789
-1.1848255 -0.82394314 2.7713995
-1.1612003 -0.8242653 2.7669992
-1.118507 -0.82339382 2.774333
-1.103575 -0.82882255 2.7766247
-1.353561 -0.80049306 2.767
-1.3301777 -0.79527336 2.7764285
-1.3075622 -0.79371417 2.7853341
-1.2729694 -0.79468745 2.7877066
-1.2444193 -0.79167193 2.770143
-1.2126588 -0.78853071 2.7745624
-1.1870191 -0.79619747 2.7780001
-1.1614999 -0.79564148 2.7669995
-1.1186029 -0.79372525 2.7773123
-1.1051505 -0.7970776 2.7890003
-1.3656896 -0.75682986 2.767
-1.3327097 -0.76221532 2.7770572
-1.3021398 -0.76451206 2.787581
-1.2768456 -0.76411498 2.7890007
-1.2435812 -0.76718163 2.7852073
-1.2180953 -0.76778412 2.7841878
-1.1839237 -0.76242 2.7677851
-1.1649599 -0.76350063 2.7669995
-1.1169406 -0.76424217 2.7747643
-1.1053967 -0.76257026 2.7835
-1.3535612 -0.72772098 2.767
-1.3349347 -0.73709136 2.7766244
-1.2995987 -0.73464185 2.7804444
-1.2728745 -0.73427564 2.7839718
-1.2452103 -0.73492748 2.7851183
-1.2151523 -0.7390005 2.7796671
-1.1867536 -0.73573703 2.7764285
-1.1604724 -0.73393095 2.7669992
-1.1185168 -0.73565406 2.7769997
-1.3535612 -0.71316659 2.767
-1.338164 -0.70584035 2.7786469
-1.3053163 -0.70661181 2.7890007
-1.2739818 -0.69978559 2.779222
-1.2429285 -0.70549524 2.782053
-1.2161039 -0.70669609 2.7890007
-1.1845273 -0.70493776 2.7727387
-1.153809 -0.70588177 2.7687829
-1.1262619 -0.70791578 2.7820525
-1.1051505 -0.7163918 2.789
-1.355777 -0.67467141 2.7820528
-1.3450958 -0.67660725 2.7858572
-1.2946398 -0.67971647 2.7889998
-1.2787472 -0.68460649 2.789
-1.2486531 -0.67222416 2.7870874
-1.2101579 -0.67431164 2.7890005
-1.1871145 -0.67645848 2.7751708
-1.1581248 -0.67912513 2.7774994
-1.1251215 -0.67445248 2.7861917
-1.1051505 -0.66749138 2.789
-1.3557255 -0.64385337 2.7808948
-1.3462675 -0.64473385 2.789
-1.2983074 -0.63815111 2.789
-1.269868 -0.63930923 2.7890005
-1.2445168 -0.6528213 2.789
-1.2084936 -0.64613825 2.7890003
-1.1848208 -0.64245123 2.7853339
-1.1549481 -0.64661711 2.7729995
-1.1233082 -0.64378232 2.7779996
-1.1051505 -0.65526623 2.789
-1.3535612 -0.62098855 2.767
-1.3411702 -0.6109547 2.7783546
-1.3042454 -0.60776293 2.789
-1.2726347 -0.61818343 2.7890005
-1.2502218 -0.6145159 2.7889998
-1.2089281 -0.61179912 2.7889998
-1.1855646 -0.61451572 2.7890007
-1.1525197 -0.61297125 2.7723095
-1.124701 -0.61486065 2.7779999
-1.3562124 -0.57437074 2.7795713
-1.3387463 -0.58538353 2.782305
-1.3105326 -0.59414071 2.789
-1.2371817 -0.59169561 2.7889998
-1.2141007 -0.58308911 2.7890005
-1.1886307 -0.58540845 2.7890007
-1.1551393 -0.58491582 2.7807503
-1.1330885 -0.58713144 2.7802002
-1.3561709 -0.55387801 2.7711246
-1.3423935 -0.5549463 2.7806549
-1.2665222 -0.54279518 2.7890003
-1.256742 -0.54279518 2.789
-1.21102 -0.55917686 2.7890005
-1.1886724 -0.55453134 2.7890005
-1.1571299 -0.55524439 2.7832966
-1.1285368 -0.55059862 2.7732854
-1.3547279 -0.52622843 2.7714002
-1.3397371 -0.52742141 2.7747643
-1.266522 -0.53790516 2.7890003
-1.256742 -0.53790516 2.789
-1.2029514 -0.53301513 2.7890003
-1.1862438 -0.52955127 2.7890005
-1.1557487 -0.52508873 2.7868011
-1.1243569 -0.52664006 2.7865009
-1.1051505 -0.51834494 2.7890003
-1.3543944 -0.50235409 2.770143
-1.347385 -0.49325523 2.7757995
-1.1517346 -0.49904215 2.7890005
-1.1278077 -0.50078857 2.7861617
-1.1051505 -0.50611985 2.789
-1.360384 -0.45978814 2.7779996
-1.3461971 -0.46807742 2.7824001
-1.1454934 -0.46455443 2.7889998
-1.1369358 -0.46699947 2.789
-1.3630348 -0.43508661 2.7803571
-1.1482439 -0.43429729 2.7890003
-1.1369358 -0.43765923 2.789
-1.3642205 -0.40611815 2.7786109
-1.3496529 -0.40342885 2.789
-1.1736112 -0.40342885 2.789
-1.1557372 -0.40216407 2.7890007
-1.1333483 -0.40461636 2.7802
-1.3566445 -0.37604499 2.7771537
-1.1467159 -0.38142368 2.789
-1.1243026 -0.37393802 2.7835002
-1.3640196 -0.34464452 2.7725
-1.1736112 -0.33252317 2.789
-1.1570393 -0.33849993 2.7890005
-1.1300454 -0.34541512 2.7889998
-1.3600963 -0.3158837 2.7770832
-1.3486805 -0.30767435 2.7853334
-1.1888247 -0.32111305 2.7889998
-1.1535362 -0.31913987 2.7890005
-1.1369358 -0.31540799 2.789
-1.3555043 -0.28463715 2.7717142
-1.3472781 -0.2857829 2.7791002
-1.1328609 -0.28280771 2.789
-1.3441477 -0.25446022 2.7739995
-1.1442709 -0.26650754 2.789
-1.1298714 -0.26010174 2.7816665
-1.3573537 -0.21804419 2.7758002
-1.3451325 -0.22543755 2.7802002
-1.3611078 -0.2021447 2.767
-1.3440654 -0.19732574 2.7774761
-1.3568647 -0.16208638 2.7758002
-1.3457081 -0.15910302 2.7808948
-1.3560666 -0.13838886 2.7764287
-1.3456761 -0.13587259 2.7803915
-1.3577818 -0.10397863 2.7820003
-1.349653 -0.10269098 2.7890003
-1.3618778 -0.073398955 2.7823043
-1.3487095 -0.06306915 2.767
-1.3588717 -0.044980835 2.7732854
-1.3487095 -0.055791941 2.767
-0.70416677 -0.056235537 2.789
-1.3826698 -0.016980156 2.767
-1.362255 -0.016425559 2.77354
-1.3476968 -0.0088020833 2.789
-1.361656 0.015070983 2.7812355
-1.3461602 0.011526539 2.7890003
-0.56480038 0.02200521 2.7889998
-1.3676137 0.047985166 2.7831337
-1.3496529 0.058680557 2.789
-0.56480038 0.039120376 2.789
-1.3599159 0.072581679 2.7765648
-1.3452432 0.081122115 2.7820528
-1.3559699 0.10392903 2.7760584
-1.3478504 0.10460562 2.77525
-1.3541223 0.13646945 2.7795713
-1.348326 0.13176651 2.7754614
-1.3582972 0.16951691 2.7795718
-1.3488982 0.1564566 2.7714002
-1.3571759 0.19018261 2.7773528
-1.3475275 0.19931473 2.7772665
-1.3612559 0.23087221 2.7720766
-1.3448447 0.22122698 2.7790997
-1.361289 0.25409934 2.7783546
-1.369723 0.28478789 2.7779996
-1.3635659 0.31368184 2.7771537
-1.3642918 0.3487277 2.7708259
-1.3668931 0.37373403 2.774096
-1.3838834 0.40342888 2.789
-1.3756242 0.40328625 2.7851176
-1.3699275 0.43555918 2.78372
-1.3696589 0.46617267 2.7816668
0.57947052 0.47922456 2.789
0.70475382 0.47796449 2.7816665
0.73595202 0.47922462 2.789
0.76773733 0.47922456 2.7890003
0.80441266 0.47922456 2.789
0.82312506 0.47591686 2.7697499
0.85719901 0.46567291 2.7754614
0.88508195 0.47122636 2.7736001
0.91541672 0.47726855 2.789
0.94500577 0.47153908 2.7801998
0.97452247 0.46574944 2.7737691
1.0076993 0.47041908 2.775105
1.0322092 0.46530348 2.7797365
1.053805 0.46699944 2.789
1.0939149 0.47010076 2.7764287
1.1243032 0.47718713 2.789
1.1523864 0.47033799 2.7835
1.1871382 0.47228312 2.777
1.2106544 0.46721068 2.7793753
1.2349023 0.46416828 2.7754614
-1.3838832 0.49878475 2.789
-1.3692389 0.49770099 2.7783141
0.20248859 0.50568664 2.7792222
0.22417344 0.50091869 2.7795718
0.25751209 0.50404084 2.7798333
0.28370348 0.50056934 2.7795718
0.31598294 0.49526381 2.7761667
0.34461826 0.49428132 2.7799416
0.37698054 0.50112224 2.7766247
0.40534356 0.5001685 2.781667
0.43335187 0.50215065 2.7820528
0.46527436 0.50517219 2.7757998
0.49669436 0.50182611 2.7743332
0.52570796 0.50023419 2.7747643
0.55514002 0.48733455 2.7758002
0.58745819 0.48483753 2.7736001
0.61073428 0.48998982 2.779222
0.64582723 0.49057913 2.7758
0.67619032 0.48596546 2.7821252
0.70415676 0.48098898 2.767
0.7374239 0.4815087 2.767
0.76808631 0.48754224 2.7827144
0.79137528 0.48505679 2.7764289
0.81019598 0.48272157 2.767
0.89364141 0.48223639 2.767
0.91726047 0.48664469 2.7795718
0.93575042 0.48125052 2.7725
0.99940342 0.48029584 2.767
1.123116 0.48029587 2.767
-1.3571731 0.52646279 2.7753806
-1.3492755 0.52402133 2.7802
0.19214109 0.51642126 2.7743335
-1.3698661 0.55221921 2.7804444
-1.3631084 0.58596122 2.7757995
-1.3487095 0.59430546 2.767
-1.3597901 0.61254019 2.7735181
-1.3487095 0.60158265 2.767
-1.3599654 0.64487165 2.7753811
-1.365662 0.67683232 2.7765331
-1.3826698 0.69376069 2.767
-1.367764 0.70676661 2.77525
0.68705153 0.7163918 2.789
0.71272433 0.71272433 2.789
0.7352984 0.71332532 2.7865558
0.7530672 0.71883684 2.789
-1.3678887 0.7355305 2.7777176
0.68705153 0.73839706 2.789
0.71001667 0.73753971 2.7804835
0.73568153 0.73531306 2.7774758
0.75502753 0.73820132 2.7750001
-1.3630205 0.76165289 2.7764285
-1.3462838 0.77138424 2.767
0.70675212 0.76287055 2.7752495
0.73499817 0.76410705 2.766999
0.75663108 0.76081145 2.7764287
-1.3553419 0.79426062 2.7706668
-1.3470922 0.79294634 2.767
0.68949658 0.80441266 2.789
0.70952845 0.79533124 2.7794669
0.73465168 0.79342371 2.766999
0.75315636 0.79610747 2.7743335
-1.3591427 0.82527697 2.7717137
-1.3487095 0.81989902 2.767
0.68378711 0.82033026 2.781667
0.70834565 0.82515728 2.7790997
0.73361182 0.82366174 2.7686489
0.75517899 0.82441771 2.7767777
-1.3826698 0.85143352 2.767
-1.3701466 0.85433483 2.7792943
0.68216151 0.84842312 2.7889998
0.70651132 0.85414165 2.7773123
0.73470587 0.85138565 2.7686915
0.75813764 0.85187799 2.7816665
-1.3652726 0.88616639 2.7770569
0.71078604 0.8854416 2.779
0.72989231 0.88522691 2.7718883
-1.3639245 0.91422397 2.7772145
0.68949664 0.91443872 2.7890003
0.70641965 0.9144249 2.771277
0.73515016 0.91536689 2.7722795
0.75279498 0.92482191 2.7835002
-1.3629615 0.94472808 2.7832963
0.68812716 0.95654941 2.7835002
0.70711142 0.94617629 2.7747297
0.73370469 0.94377333 2.7669992
-1.4121399 0.97222328 2.7725
-1.3921787 0.97456372 2.7669992
-1.3686792 0.97481972 2.7733679
0.68694144 0.97412497 2.7848754
0.70803094 0.97470611 2.7749441
0.729985 0.96932429 2.7669997
-1.4156599 1.0168688 2.767
-1.3926342 1.0095065 2.7685709
-1.3745583 1.002244 2.7812357
0.68705153 0.99267942 2.789
0.71174282 0.99972916 2.7838235
0.73018581 1.0101326 2.7679994
-1.4500303 1.0426776 2.7691996
-1.424596 1.034513 2.7725
-1.3962831 1.0343733 2.7728229
-1.3789932 1.0220197 2.789
0.71740961 1.0395018 2.7835
0.73364455 1.03941 2.7848752
-1.476305 1.0699424 2.7889998
-1.4566917 1.0653604 2.7872405
-1.4266318 1.0638216 2.7890007
-1.3943372 1.0639822 2.7827151
0.71609515 1.0590456 2.7869999
0.73721075 1.0656435 2.786556
0.7530672 1.0684751 2.789
-1.4774926 1.0915282 2.7890003
-1.4620044 1.090461 2.7848098
-1.4205585 1.0880353 2.789
-1.3968606 1.089352 2.7890007
0.71883684 1.0807003 2.789
0.73595208 1.0841931 2.7890003
0.7530672 1.0807003 2.789
-1.471904 1.1100405 2.789
-1.467014 1.1100405 2.789
-1.4132235 1.1100405 2.789
-1.3928484 1.1116707 2.789
-1.4298083 -1.1142644 2.812
-1.3829697 -1.1142644 2.812
-1.3558526 -1.1142644 2.812
-1.3385963 -1.1142644 2.812
-1.1044036 -1.1142644 2.812
-1.5037638 -1.109334 2.812
-1.385435 -1.1014454 2.812
-1.3592259 -1.0968784 2.812
-1.3404043 -1.0991446 2.8120003
-1.1142644 -1.0846821 2.812
-1.1063757 -1.0950359 2.812
-1.417375 -1.0653893 2.8120003
-1.4026911 -1.069891 2.812
-1.3558526 -1.0710289 2.812
-1.3410616 -1.0666041 2.812
-1.1142644 -1.0797517 2.812
-1.1062524 -1.0637281 2.812
-1.3614873 -1.0244612 2.812
-1.3443484 -1.0222309 2.812
-1.2999752 -1.027983 2.812
-1.0982406 -1.0396924 2.812
-1.3614631 -1.0051163 2.8119993
-1.3348451 -1.0034382 2.8120003
-1.3030688 -1.0084065 2.812
-1.2868274 -1.0156569 2.812
-1.1068687 -0.99963319 2.812
-1.360783 -0.98360956 2.812
-1.1068687 -0.97374886 2.812
-1.3706439 -0.9318406 2.812
-1.1142644 -0.94663167 2.812
-1.1053001 -0.94618338 2.8120003
-1.362262 -0.91672075 2.8119993
-1.3435267 -0.91211903 2.812
-1.35462 -0.89116496 2.812
-1.3395824 -0.88302994 2.812
-1.1164557 -0.88363242 2.812
-1.109334 -0.87760651 2.812
-1.3538806 -0.85640585 2.812
-1.3329157 -0.85788494 2.8120003
-1.3091316 -0.85624152 2.812
-1.2763865 -0.8506344 2.812
-1.1035072 -0.85429925 2.8120003
-1.32134 -0.83816344 2.812
-1.306549 -0.82337236 2.812
-1.1142644 -0.82583749 2.812
-1.1048145 -0.82624835 2.812
-1.3287356 -0.78392935 2.812
-1.299975 -0.79981613 2.812
-1.2745016 -0.78392935 2.812
-1.1167296 -0.79872054 2.812
-1.1081014 -0.79748785 2.812
-1.3509222 -0.75434709 2.812
-1.339829 -0.76913822 2.812
-1.2966881 -0.75434709 2.812
-1.2700642 -0.77209646 2.812
-1.1142644 -0.75434709 2.812
-1.109334 -0.77160341 2.812
-1.3544439 -0.73849952 2.812
-1.3427051 -0.73380393 2.812
-1.2385098 -0.73068136 2.812
-1.2202675 -0.72969526 2.812
-1.1172227 -0.73955601 2.812
-1.3533874 -0.69518262 2.812
-1.3357024 -0.70182794 2.8120003
-1.306549 -0.69468969 2.812
-1.2814041 -0.69616878 2.812
-1.2449193 -0.69271749 2.812
-1.2276629 -0.71490419 2.812
-1.1208382 -0.70307124 2.8120003
-1.1085123 -0.7033999 2.812
-1.3509223 -0.67546117 2.812
-1.3333137 -0.67264354 2.8119988
-1.3040837 -0.67017847 2.8119996
-1.2798799 -0.67411649 2.8120003
-1.2430459 -0.67644703 2.8119998
-1.2247047 -0.67250293 2.812
-1.1167295 -0.68532193 2.812
-1.1081014 -0.67546105 2.812
-1.3519083 -0.64390677 2.812
-1.3332037 -0.64387602 2.8119991
-1.3054533 -0.64460057 2.8119996
-1.2708036 -0.64526254 2.812
-1.244303 -0.641873 2.8119991
-1.223629 -0.64094859 2.8120003
-1.1142645 -0.64341372 2.812
-1.1081014 -0.64587891 2.812
-1.3342018 -0.61908352 2.8120003
-1.3048424 -0.6123144 2.8119998
-1.2742275 -0.60753155 2.812
-1.2440976 -0.61520106 2.8119996
-1.2178022 -0.61681569 2.812
-1.1980807 -0.61876184 2.812
-1.1198992 -0.61488801 2.812
-1.109334 -0.6261574 2.812
-1.3297921 -0.58131444 2.812
-1.3037317 -0.58389699 2.8119988
-1.2745014 -0.58424902 2.8119988
-1.2473848 -0.58178413 2.812
-1.215337 -0.59410995 2.812
-1.1860287 -0.58068836 2.812
-1.1310276 -0.5862214 2.812
-1.3345743 -0.55661333 2.812
-1.2998435 -0.55515993 2.8119998
-1.2745014 -0.55748439 2.8119996
-1.2460573 -0.55504626 2.8119998
-1.2232256 -0.54825753 2.812
-1.189206 -0.55663913 2.812
-1.1660333 -0.54234105 2.812
-1.1249034 -0.55635375 2.812
-1.1048965 -0.54825747 2.812
-1.3533874 -0.51522398 2.812
-1.3390893 -0.52524918 2.8120003
-1.2987641 -0.52806884 2.812
-1.2748536 -0.52487344 2.8119988
-1.2473844 -0.52754992 2.812
-1.2170436 -0.52280915 2.8119998
-1.1878408 -0.52034402 2.812
-1.1611029 -0.53741068 2.812
-1.1142644 -0.53494549 2.812
-1.1044036 -0.52508473 2.812
-1.3525656 -0.49796772 2.812
-1.3364394 -0.4890314 2.812
-1.3086619 -0.48458529 2.812
-1.2727085 -0.49751946 2.8120003
-1.2369075 -0.48749071 2.812
-1.2153372 -0.49550262 2.8119988
-1.1857548 -0.50043285 2.812
-1.1649768 -0.49162868 2.812
-1.1255629 -0.49077755 2.812
-1.1068687 -0.5028981 2.812
-1.3551484 -0.45922908 2.812
-1.333666 -0.46592039 2.8119988
-1.3040838 -0.46592039 2.8119988
-1.2743254 -0.46715301 2.8119996
-1.2430974 -0.46667057 2.8120003
-1.2186239 -0.47413754 2.812
-1.1835635 -0.45907253 2.812
-1.1642725 -0.46662459 2.812
-1.1315205 -0.4659203 2.812
-1.1068687 -0.46592027 2.812
-1.35899 -0.43723446 2.8120003
-1.3331729 -0.44866401 2.812
-1.306549 -0.44866401 2.812
-1.2680025 -0.43297648 2.8120003
-1.211023 -0.43387285 2.812
-1.184522 -0.43510547 2.8119991
-1.1623355 -0.43510544 2.812
-1.127777 -0.43843803 2.8119996
-1.3558524 -0.40675581 2.812
-1.3361312 -0.40247414 2.812
-1.2716963 -0.40650085 2.8119993
-1.2510822 -0.40429056 2.812
-1.2079414 -0.40487072 2.812
-1.1901492 -0.40729171 2.8120003
-1.1635681 -0.41291875 2.812
-1.1324289 -0.40377164 2.812
-1.3593038 -0.37815964 2.812
-1.3312007 -0.38456908 2.812
-1.2749581 -0.37434307 2.8119996
-1.2451744 -0.37759864 2.8119993
-1.215337 -0.37717348 2.8119988
-1.1857545 -0.37717342 2.8119988
-1.1597584 -0.37336376 2.8120003
-1.1296718 -0.38087139 2.812
-1.3619508 -0.34473684 2.8119986
-1.2784458 -0.35597295 2.812
-1.2325933 -0.35252169 2.812
-1.2132117 -0.34614623 2.8119993
-1.1885488 -0.34824875 2.8119993
-1.1570808 -0.35265145 2.812
-1.1265901 -0.34251583 2.8119988
-1.1044037 -0.34759134 2.812
-1.3558526 -0.31744018 2.812
-1.345992 -0.30568314 2.812
-1.2100984 -0.31369501 2.812
-1.1846343 -0.31240642 2.8119991
-1.1606098 -0.30519015 2.812
-1.1290555 -0.32153079 2.812
-1.3516268 -0.2831443 2.812
-1.345992 -0.28349644 2.812
-1.213365 -0.28201738 2.8119993
-1.1859791 -0.28461695 2.8119991
-1.1602156 -0.28497556 2.8119998
-1.1277691 -0.28124568 2.8120003
-1.1025074 -0.27685943 2.812
-0.42877325 -0.28348941 2.8085001
-1.3509223 -0.25391421 2.812
-1.3425786 -0.25220758 2.812
-1.2136303 -0.25732756 2.8119998
-1.1875768 -0.25252083 2.8120003
-1.1591856 -0.25199687 2.8119996
-1.1251113 -0.26229584 2.8120003
-1.1044036 -0.26377496 2.812
-1.3509222 -0.22926235 2.812
-1.3395822 -0.22334592 2.812
-1.252931 -0.22618088 2.812
-1.1851387 -0.22823523 2.812
-1.1561725 -0.22433196 2.8119988
-1.3517441 -0.19064111 2.812
-1.341441 -0.19911122 2.812
-1.1734288 -0.20707567 2.812
-1.1555562 -0.19629045 2.8119991
-1.120838 -0.19146283 2.812
-1.1073618 -0.18636811 2.812
-1.3537395 -0.17185873 2.812
-1.3391441 -0.16297622 2.812
-1.1837378 -0.17166664 2.8120003
-1.1538836 -0.16463923 2.8119996
-1.1179622 -0.17626084 2.812
-1.109334 -0.17502825 2.812
-1.3528943 -0.12720363 2.812
-1.3405138 -0.142433 2.812
-1.2030112 -0.12325933 2.812
-1.1832896 -0.12490278 2.812
-1.1533552 -0.1341766 2.8119996
-1.3548665 -0.10649605 2.8120003
-1.3451703 -0.10189438 2.812
-1.2030112 -0.11832896 2.812
-1.181146 -0.10803948 2.8120003
-1.1561725 -0.10600302 2.8119988
-1.3583177 -0.078437746 2.8120003
-1.3440198 -0.076420784 2.812
-1.2054763 -0.086281531 2.812
-1.1808244 -0.088746719 2.812
-1.1561725 -0.075496338 2.8119991
-0.64123851 -0.071925446 2.812
-0.58107978 -0.068673059 2.812
-0.55932349 -0.067381762 2.812
-0.52891946 -0.073955603 2.812
-1.3598865 -0.047959086 2.8120003
-1.3435267 -0.059164479 2.812
-1.1800027 -0.042729907 2.812
-1.1561726 -0.046838559 2.8119988
-0.71095985 -0.047331583 2.812
-0.64341372 -0.059164479 2.812
-0.6059429 -0.040429063 2.812
-0.58389693 -0.046486381 2.8119988
-0.56083 -0.048482008 2.812
-0.53248036 -0.059164479 2.812
-1.3572613 -0.020073663 2.812
-1.345992 -0.012325933 2.812
-1.2104065 -0.027117055 2.812
-1.1906852 -0.027117055 2.812
-1.148777 -0.017256306 2.812
-1.124125 -0.018435311 2.8120003
-0.60520333 -0.028349645 2.812
-0.58198953 -0.02033779 2.812
-0.55924517 -0.01408678 2.812
-1.3564004 0.023008406 2.812
-1.3440198 0.018735418 2.812
-1.1463118 0 2.812
-1.12166 0 2.812
-0.69271743 0.02958224 2.812
-0.68532193 0.02958224 2.812
-0.57755804 0.01549546 2.812
-0.55431485 0.013664177 2.8119988
-0.53149426 0.014298083 2.812
-0.5028981 0.012325933 2.812
-1.3595995 0.044767797 2.8119998
-1.3410614 0.046838541 2.812
-0.69607908 0.046614442 2.8120003
-0.68532193 0.034512613 2.812
-0.5825426 0.048165955 2.8119998
-0.55537128 0.047190722 2.8119996
-0.53741068 0.046838544 2.812
-1.3530353 0.0704339 2.812
-1.3430337 0.074448638 2.812
-1.148777 0.066560037 2.812
-0.77006274 0.075496331 2.812
-0.70795679 0.076644897 2.8120003
-0.57192326 0.064094849 2.812
-0.56452775 0.066560037 2.812
-0.51275879 0.086281531 2.812
-0.50043285 0.086281531 2.812
-1.3548665 0.10682473 2.8120003
-1.3413515 0.10672806 2.812
-0.7960909 0.11438464 2.8120003
-0.76913834 0.10600303 2.8119993
-0.71243894 0.096142277 2.812
-0.52396411 0.10577892 2.8119991
-0.49929515 0.10695118 2.8119998
-0.47824621 0.11832896 2.812
-1.3539562 0.13615415 2.812
-1.3413516 0.1348602 2.812
-0.7863946 0.12572451 2.812
-0.76544046 0.13127118 2.812
-0.73709083 0.145446 2.812
-0.52261961 0.13414016 2.8119993
-0.49882519 0.13269134 2.8120003
-0.47824621 0.12325933 2.812
-1.3566308 0.16633521 2.812
-1.3428545 0.16897735 2.8120003
-0.77406865 0.16270232 2.812
-0.52015436 0.15284157 2.812
-0.50536323 0.15284157 2.812
-1.3536116 0.19183636 2.8120003
-1.3413696 0.19320899 2.812
-1.3519082 0.22679715 2.812
-1.345992 0.2194016 2.812
-1.3564324 0.25521931 2.812
-1.3604429 0.28392151 2.8119993
-1.3421993 0.28672019 2.812
-1.3596872 0.31335261 2.8119996
-1.3429577 0.31213057 2.812
-1.3659276 0.34426865 2.8120003
-1.345992 0.33033499 2.812
-1.3653846 0.37766665 2.8120003
-1.3805045 0.41168618 2.812
-1.3717816 0.40884173 2.812
-1.3637764 0.43704247 2.8119996
-1.345992 0.44619876 2.812
-1.3616048 0.46559164 2.8119993
-1.345992 0.46098989 2.812
0.71490407 0.47824621 2.812
0.73659778 0.47824621 2.812
0.76420784 0.47824621 2.812
0.79872048 0.47701362 2.812
0.82407671 0.47754186 2.812
0.85048938 0.47578102 2.812
0.89568448 0.47002894 2.812
0.91211903 0.475288 2.812
0.95156199 0.47331583 2.812
0.98360944 0.46345508 2.812
1.0072049 0.46697676 2.812
1.0242851 0.46222249 2.812
1.1275765 0.47134373 2.812
1.1527213 0.46937156 2.812
1.1857548 0.46961805 2.812
1.2132241 0.46204644 2.812
1.2325933 0.46345508 2.812
-1.3805045 0.49303731 2.812
-1.3673568 0.49397641 2.812
0.19510192 0.50501108 2.812
0.22186679 0.49961114 2.812
0.2551468 0.50289816 2.812
0.28349644 0.49796769 2.812
0.3130787 0.49550247 2.812
0.34611219 0.49057218 2.812
0.3752014 0.49599552 2.812
0.40922099 0.4967351 2.812
0.43633804 0.49796772 2.812
0.4659203 0.50289816 2.812
0.48712093 0.50092596 2.812
0.53741068 0.49796769 2.812
0.55220187 0.48975047 2.812
0.57192326 0.48317659 2.812
0.61629671 0.48909304 2.812
0.64517462 0.4909243 2.812
0.67053068 0.48440921 2.812
0.69271743 0.48317659 2.812
0.76913822 0.48317659 2.812
0.79625523 0.48317659 2.812
0.92444497 0.48317659 2.812
0.93184054 0.48317659 2.812
-1.3548665 0.52607077 2.812
-1.345992 0.53494549 2.812
0.17749344 0.52508473 2.812
0.18625855 0.51823694 2.812
-1.3824767 0.56304866 2.812
-1.3636003 0.55548871 2.812
-1.345992 0.54234105 2.812
-1.3805045 0.5743885 2.812
-1.3662933 0.58526427 2.812
-1.3574959 0.61602277 2.812
-1.3596872 0.64313972 2.8119996
-1.3583176 0.67299592 2.812
-1.3678703 0.70226997 2.812
-1.333666 0.70750862 2.812
0.68532193 0.71736932 2.812
0.7028023 0.71490413 2.8120003
0.77160341 0.71983445 2.812
-1.361769 0.73856992 2.8120003
0.68532193 0.73955595 2.812
0.70156318 0.73491555 2.812
0.76667303 0.72476488 2.812
-1.3601664 0.76544046 2.812
0.6779263 0.77160347 2.812
0.69616878 0.76815224 2.8120003
0.76913822 0.77899897 2.812
-1.3564687 0.79687148 2.812
-1.345992 0.79132491 2.812
0.69863391 0.79576218 2.812
0.76420784 0.78639454 2.812
-1.3577489 0.82678562 2.812
0.70504344 0.82583749 2.812
0.76913822 0.83816344 2.812
-1.3805045 0.86774564 2.812
-1.3588536 0.85767061 2.8120003
-1.345992 0.85541975 2.812
0.68532193 0.86774564 2.812
0.69764793 0.85541975 2.812
0.76913822 0.84309381 2.812
-1.3805045 0.87514126 2.812
-1.3617691 0.88302994 2.8119993
0.68532199 0.88746727 2.812
0.69789445 0.8872208 2.812
-1.3610728 0.91385907 2.812
0.69976097 0.90718859 2.812
0.75927746 0.92197978 2.812
-1.3591394 0.94531685 2.8120003
-1.345992 0.95156205 2.812
0.69976097 0.94381434 2.812
-1.3805045 0.9614228 2.812
-1.3617311 0.97280043 2.8119998
-1.345992 0.9614228 2.812
0.68532193 0.97374868 2.812
-1.3805045 1.0131917 2.812
-1.3687475 1.0004866 2.812
0.7033999 1.0086722 2.812
-1.3881741 1.0367481 2.812
-1.3688272 1.0361567 2.812
0.68532199 1.0353785 2.812
0.70781684 1.0349163 2.8119991
0.72476488 1.042774 2.812
-1.45446 1.0723561 2.812
-1.3933785 1.0652345 2.812
-1.3624263 1.057072 2.8120003
-1.345992 1.057565 2.812
0.68285668 1.0526347 2.812
0.70833027 1.0620846 2.812
-1.4538913 1.0987148 2.8119998
-1.4284637 1.1052999 2.8120003
-1.3875481 1.0987691 2.812
-1.373109 1.0945429 2.812
0.71901268 1.0928993 2.812
0.73647451 1.1040955 2.812
0.75434709 1.1019385 2.812
-1.4834945 1.1213861 2.812
-1.4597698 1.1184363 2.812
-1.4265213 1.1200166 2.812
-1.3936522 1.1183732 2.812
-1.3830973 -1.1196501 2.835
-1.3756412 -1.1171649 2.835
-1.0975306 -1.1194016 2.8349998
-1.0736711 -1.1208928 2.835
-1.3818548 -1.1034954 2.835
-1.3743985 -1.1034954 2.835
-1.1150937 -1.0869265 2.835
-1.1059809 -1.0960393 2.8349998
-1.0999447 -1.0649133 2.8349996
-1.098276 -1.0358938 2.8349996
-1.1144309 -1.0100462 2.835
-1.1044896 -1.008058 2.8349998
-1.1037877 -0.97601163 2.8349996
-1.1030437 -0.948048 2.8349998
-1.1150937 -0.90632427 2.835
-1.1046 -0.92178863 2.835
-1.1148571 -0.89188558 2.8350003
-1.1059808 -0.88229924 2.835
-1.1039097 -0.85496032 2.8349998
-1.1159222 -0.81022406 2.835
-1.099629 -0.8218224 2.8349993
-1.1146795 -0.79531205 2.835
-1.1011407 -0.79688156 2.8349996
-1.116148 -0.7600652 2.8349998
-1.108466 -0.76548779 2.835
-1.1171649 -0.73317826 2.835
-1.1072234 -0.7244795 2.835
-1.1195121 -0.70915323 2.835
-1.1024487 -0.70113033 2.8349996
-1.1134368 -0.6735298 2.835
-1.1025012 -0.67452407 2.8349996
-1.3520304 -0.64370561 2.835
-1.3445743 -0.646191 2.835
-1.1134368 -0.64122027 2.835
-1.106257 -0.64729559 2.835
-1.1206671 -0.611848 2.8349996
-1.0992346 -0.60997593 2.8349996
-1.3222061 -0.57163048 2.835
-1.1457462 -0.58157194 2.8349998
-1.1233784 -0.58517128 2.8349993
-1.1011282 -0.58701605 2.8349996
-1.3296623 -0.55423307 2.8349996
-1.2625577 -0.55174768 2.835
-1.2531134 -0.55075353 2.8349998
-1.1194016 -0.56566566 2.835
-1.1011758 -0.55340457 2.8349998
-1.3520304 -0.51198208 2.835
-1.332949 -0.5230459 2.8349993
-1.3106078 -0.51529592 2.835
-1.2652692 -0.52644229 2.8349998
-1.2494354 -0.5243094 2.8349993
-1.1000543 -0.52651191 2.8349998
-1.3536873 -0.50369757 2.835
-1.334633 -0.50204068 2.8349996
-1.3065841 -0.49801683 2.8349996
-1.2744442 -0.495125 2.8349996
-1.2526165 -0.49936417 2.8349998
-1.2064599 -0.48641855 2.8350003
-1.1879973 -0.48712867 2.8349998
-1.1170518 -0.49029183 2.8349998
-1.102075 -0.49446639 2.8349996
-1.3470597 -0.45233369 2.835
-1.29611 -0.45606172 2.835
-1.2760496 -0.46049985 2.8349998
-1.243983 -0.4599205 2.8349996
-1.2153362 -0.46405032 2.8349996
-1.1921396 -0.47553027 2.835
-1.1218871 -0.46376634 2.8349996
-1.1045606 -0.46653569 2.8349998
-1.355581 -0.43422616 2.8349998
-1.3346331 -0.43493626 2.8349993
-1.3055395 -0.43552098 2.8349993
-1.2740808 -0.4387773 2.8349996
-1.2462904 -0.43471029 2.8349993
-1.2209848 -0.4365178 2.8349998
-1.1457464 -0.42748019 2.835
-1.1219583 -0.43103069 2.8349996
-1.108466 -0.44736299 2.835
-1.3530245 -0.40262672 2.835
-1.3293072 -0.40688723 2.8349996
-1.3063619 -0.40511203 2.8349993
-1.2824407 -0.39268529 2.835
-1.2448843 -0.40814975 2.8349993
-1.2267687 -0.41157395 2.835
-1.1226138 -0.40740627 2.8349996
-1.108466 -0.40014136 2.835
-1.3570009 -0.37528783 2.8349996
-1.3331419 -0.37329963 2.8349996
-1.3097796 -0.37528789 2.8349996
-1.2730514 -0.37445942 2.835
-1.2509594 -0.36948872 2.835
-1.1184075 -0.37528786 2.8349996
-1.1050249 -0.37280253 2.8349998
-1.3545159 -0.34546363 2.8349998
-1.3397219 -0.34487191 2.8349996
-1.3048087 -0.35098663 2.8349996
-1.2738703 -0.34383532 2.8349993
-1.2471316 -0.34383532 2.8349993
-1.2257746 -0.35391384 2.835
-1.1482317 -0.35043436 2.835
-1.1167505 -0.34463519 2.835
-1.102874 -0.34484231 2.8349996
-1.3536874 -0.3181248 2.835
-1.3367633 -0.31315413 2.8349996
-1.3033699 -0.30922982 2.8349996
-1.2749845 -0.3156395 2.8349993
-1.2455157 -0.3152844 2.8349993
-1.2269344 -0.31232566 2.835
-1.1457465 -0.3081834 2.835
-1.1239109 -0.31297657 2.8349996
-1.1037877 -0.31549323 2.8349996
-1.3520305 -0.28581524 2.835
-1.3438964 -0.2833299 2.8349998
-1.3030335 -0.28794557 2.8349998
-1.2698954 -0.28853732 2.8349996
-1.2471489 -0.28730649 2.8349996
-1.1929681 -0.27338848 2.835
-1.1457464 -0.298242 2.835
-1.125035 -0.29492819 2.8349998
-1.1000781 -0.28736863 2.8349996
-1.3520304 -0.26841778 2.835
-1.3371184 -0.2547484 2.8349996
-1.2724991 -0.25350568 2.8349993
-1.2473146 -0.25466555 2.8349996
-1.2203069 -0.24356431 2.835
-1.1922034 -0.25847641 2.8349998
-1.1457464 -0.25102034 2.835
-1.1252719 -0.25019196 2.8349996
-1.1019421 -0.25785506 2.8349996
-1.3355485 -0.22760572 2.8349996
-1.292382 -0.2137401 2.835
-1.2769728 -0.22566974 2.8349996
-1.2444297 -0.22616681 2.8349993
-1.2181765 -0.22474664 2.8349996
-1.1923468 -0.21933213 2.835
-1.1457464 -0.22616684 2.8349998
-1.1258638 -0.22616686 2.8349993
-1.1070459 -0.22297141 2.8350003
-1.3520305 -0.18888661 2.835
-1.3378284 -0.19409399 2.8349996
-1.2970419 -0.19478931 2.8349996
-1.2749845 -0.19634271 2.8349993
-1.244332 -0.19753931 2.8349993
-1.2153364 -0.19634266 2.8349993
-1.1895882 -0.19485146 2.8349993
-1.1485868 -0.1945674 2.8349998
-1.1237606 -0.20418106 2.8349998
-1.1044896 -0.19485144 2.8349998
-1.3520304 -0.17894518 2.835
-1.3323464 -0.16960029 2.8349993
-1.3053058 -0.17447157 2.8349998
-1.2721441 -0.16651843 2.8349996
-1.2451606 -0.16651842 2.8349993
-1.2160674 -0.16593365 2.8349993
-1.1861039 -0.16355966 2.8349996
-1.1485868 -0.1682937 2.8349998
-1.1261952 -0.16436447 2.8349996
-1.1068093 -0.1667946 2.835
-1.3540187 -0.12824404 2.835
-1.3417338 -0.134919 2.8349998
-1.2998377 -0.13296624 2.8349996
-1.2749845 -0.13669425 2.8349993
-1.2451606 -0.13669424 2.8349993
-1.2160141 -0.13782395 2.8349993
-1.1860093 -0.14116788 2.8349993
-1.1457464 -0.13669425 2.8349998
-1.1258638 -0.13669427 2.8349993
-1.1084661 -0.13669425 2.835
-0.57447094 -0.1292382 2.8350003
-0.55622137 -0.1327177 2.8349996
-1.3528589 -0.1110123 2.835
-1.3396037 -0.10687005 2.8349996
-1.3011763 -0.11509083 2.8349998
-1.2746295 -0.1129059 2.8349996
-1.2451606 -0.10687005 2.8349993
-1.216014 -0.10574035 2.8349993
-1.1979387 -0.099414006 2.835
-1.1457462 -0.10687006 2.8349998
-1.1258638 -0.10687007 2.8349993
-1.1020751 -0.1058049 2.8349996
-0.6362496 -0.094443306 2.835
-0.61056763 -0.097757101 2.8349998
-0.5819543 -0.10419354 2.8349996
-0.5577836 -0.10225441 2.8349998
-0.52460009 -0.098266914 2.8349998
-0.50121224 -0.096100204 2.835
-1.3520304 -0.07704585 2.835
-1.3358759 -0.075803176 2.8349993
-1.3056372 -0.080359653 2.835
-1.2749846 -0.074560501 2.835
-1.2407298 -0.077586144 2.8349996
-1.2153363 -0.075803176 2.8349993
-1.1894474 -0.076424509 2.8349996
-1.1468115 -0.078466058 2.8349998
-1.1258637 -0.077045843 2.8349993
-1.1047382 -0.079945423 2.8349998
-0.66110307 -0.067104451 2.835
-0.64039189 -0.080635801 2.8349996
-0.61388165 -0.077045836 2.8349993
-0.58471137 -0.083978668 2.8349996
-0.55480659 -0.080104738 2.8349996
-0.52034187 -0.07817556 2.8349996
-0.50038385 -0.080359645 2.8349996
-1.3590939 -0.044213071 2.8349996
-1.3346328 -0.047221649 2.8349993
-1.3106952 -0.044213068 2.8349996
-1.2700138 -0.059648398 2.835
-1.2404158 -0.049029183 2.8349996
-1.2160673 -0.047806438 2.8349993
-1.1929682 -0.049351949 2.8349998
-1.1457464 -0.047221646 2.8349998
-1.1258638 -0.047221653 2.8349993
-1.1041583 -0.045399055 2.8349998
-0.7240653 -0.041422497 2.835
-0.7132954 -0.042250946 2.835
-0.66517001 -0.049255118 2.8349998
-0.64122021 -0.048911691 2.8349993
-0.61826044 -0.050890509 2.8349996
-0.57163048 -0.054677699 2.835
-0.55299044 -0.045801453 2.8349996
-0.52418286 -0.046694472 2.8349993
-1.3555101 -0.021871081 2.8349998
-1.3366214 -0.018888664 2.8349996
-1.3034281 -0.024301199 2.835
-1.2834345 -0.01242675 2.8349998
-1.2377043 -0.0198828 2.8349996
-1.2147626 -0.013573835 2.8349996
-1.184781 -0.016812662 2.8349993
-1.1553328 -0.01597725 2.8349998
-1.1204543 -0.016958859 2.8349996
-1.1062068 -0.018527154 2.8349998
-0.67253572 -0.0089472597 2.8349998
-0.63687092 -0.018018788 2.835
-0.61520708 -0.01524348 2.8349996
-0.58964932 -0.010562737 2.835
-0.54961735 -0.0205929 2.8349996
-0.52499354 -0.016958861 2.8349993
-0.50026548 -0.012071701 2.8349998
-1.3520304 0.009941401 2.835
-1.338591 0.0169372 2.8349993
-1.2327335 0 2.835
-1.2123851 0.014756765 2.8349993
-1.1855117 0.014912104 2.8349993
-1.1574627 0.015054121 2.8349993
-1.1233784 0.013026662 2.8349993
-1.1051525 0.01623762 2.8349998
-0.75761759 0.025267726 2.8349998
-0.73980588 0.021539701 2.8349998
-0.70252562 0.024439275 2.8349998
-0.67322689 0.015033337 2.8349991
-0.64429033 0.017836044 2.8349993
-0.61077476 0.012426751 2.8349996
-0.5923906 0.012572947 2.8349996
-0.54429162 0.018225901 2.835
-0.52382398 0.014327311 2.8349993
-0.49278975 0.015878625 2.8349993
-0.47594452 0.013669425 2.835
-1.3341358 0.046724577 2.8349993
-1.2339761 0.055920374 2.835
-1.2142066 0.047899477 2.8349993
-1.1862428 0.047514047 2.8349993
-1.1574628 0.047576707 2.8349996
-1.1251327 0.047221661 2.8349993
-1.1054074 0.048177551 2.8349998
-0.7886017 0.051446743 2.8349996
-0.76510537 0.045883391 2.8349996
-0.73240167 0.046910986 2.8349993
-0.7045967 0.047842991 2.8349996
-0.67669314 0.044284414 2.8349996
-0.64370567 0.034794901 2.835
-0.6064254 0.047221649 2.8349996
-0.59648401 0.034794901 2.835
-0.54512006 0.048602398 2.835
-0.5244087 0.047221649 2.8349993
-0.50576872 0.047221649 2.835
-1.3380388 0.077506103 2.8349993
-1.3097794 0.082845002 2.8349998
-1.2399638 0.0790793 2.8349996
-1.2153364 0.077045836 2.8349993
-1.1855118 0.07704585 2.8349993
-1.158173 0.079531208 2.8349996
-1.1171647 0.065861776 2.835
-1.0953292 0.076690793 2.8349998
-0.81353784 0.086158797 2.835
-0.79513443 0.078288533 2.8349996
-0.76073325 0.075641081 2.8349996
-0.73532081 0.07661733 2.8349993
-0.69714069 0.076797321 2.8349996
-0.6847139 0.074560501 2.835
-0.60642546 0.064619109 2.835
-0.58261836 0.073252417 2.8349996
-0.55350208 0.077630617 2.8349993
-0.52565145 0.075803161 2.8349993
-0.49362874 0.076663479 2.8349996
-0.47079629 0.08272665 2.8349998
-1.3379953 0.10760105 2.8349996
-1.2415704 0.0966525 2.835
-1.2120861 0.10094346 2.8349998
-1.1855118 0.10687006 2.8349993
-1.1589682 0.10557767 2.8349993
-1.122668 0.11468116 2.8349998
-1.1015071 0.1108466 2.8349998
-0.81751454 0.10272782 2.8349998
-0.79779738 0.10083421 2.8349998
-0.75554639 0.10687006 2.8349996
-0.73390931 0.10745484 2.8349993
-0.70719504 0.099865891 2.8349998
-0.60394007 0.11184075 2.835
-0.59648401 0.11681145 2.835
-0.55289477 0.10553178 2.8349996
-0.48712865 0.10438471 2.8349998
-0.46839291 0.10801714 2.8349996
-1.3347323 0.13758899 2.8349993
-1.2327335 0.13669424 2.835
-1.2261059 0.13835114 2.835
-1.181922 0.12647669 2.835
-1.1561848 0.14017373 2.8349998
-1.1184075 0.13314375 2.8349998
-1.1062068 0.13556454 2.8349998
-0.81328309 0.13573834 2.8349998
-0.79411227 0.1388368 2.8349993
-0.75922036 0.13874739 2.8349996
-0.73246831 0.13349882 2.8349996
-0.71578074 0.13917962 2.835
-0.54792404 0.13344419 2.8349998
-0.53683555 0.1441503 2.835
-0.4904424 0.14111264 2.8349996
-0.46612331 0.13693477 2.8349993
-0.26096174 0.1391796 2.8349998
-1.3520305 0.15906242 2.835
-1.3396035 0.16453014 2.8349996
-1.2327335 0.15906242 2.835
-1.2178215 0.16086993 2.8349998
-1.183243 0.17073271 2.8349996
-1.1564186 0.1666646 2.8349993
-1.1306685 0.17165487 2.8349998
-1.1059808 0.16900381 2.835
-0.79299241 0.16038792 2.8349998
-0.76300251 0.1540917 2.835
-0.54180628 0.15409169 2.835
-0.52426267 0.16315593 2.8349996
-0.49422961 0.16687353 2.8349993
-0.4705596 0.1684515 2.835
-1.3520304 0.2087694 2.835
-1.3397948 0.19882803 2.8349998
-1.2093713 0.18789248 2.8349998
-1.1831982 0.19488572 2.8349993
-1.1576918 0.19594176 2.8349993
-1.1308342 0.18640123 2.835
-0.49481064 0.18798283 2.8349998
-0.47470182 0.1839159 2.835
-1.3532732 0.22865219 2.835
-1.3399585 0.22439158 2.8349996
-1.1812373 0.22487445 2.8349993
-1.1601611 0.22566979 2.8349993
-1.3560071 0.25847644 2.8349998
-1.3437459 0.265104 2.835
-1.157721 0.25689477 2.8349996
-0.518444 0.25648811 2.8349998
-0.50452602 0.25599104 2.835
-1.3520304 0.27587384 2.835
-1.3354614 0.28664371 2.8349993
-1.3172355 0.2932713 2.835
-1.1579469 0.28739682 2.8349996
-0.46835041 0.29271904 2.835
-1.3361244 0.31646794 2.8349996
-1.3172355 0.31563944 2.835
-1.1587465 0.31621298 2.8349996
-0.55671841 0.32558089 2.835
-0.51419133 0.31922939 2.835
-0.49396333 0.31719276 2.8349993
-0.46915761 0.30780104 2.8349998
-1.3614748 0.34571218 2.8349996
-1.3391894 0.33717915 2.8349998
-1.1606585 0.3330369 2.835
-0.55119538 0.34408289 2.8349993
-0.52291763 0.34874427 2.8349993
-0.49577332 0.34557164 2.8349996
-0.46227512 0.35789037 2.835
-1.3605516 0.37635297 2.8349996
-1.3420891 0.38522929 2.835
-0.54180628 0.3728025 2.835
-0.52440876 0.37528783 2.8349993
-0.49458471 0.37528789 2.8349993
-0.46534523 0.37572646 2.8349993
-0.44736299 0.38522923 2.835
-1.3818547 0.40759739 2.835
-1.3641025 0.40546715 2.8349993
-1.3402814 0.40601587 2.8349996
-0.51943815 0.39517069 2.835
-0.49458468 0.39703462 2.8349996
-0.46823993 0.39765605 2.8349998
-1.3581057 0.43189859 2.8349996
-1.3442193 0.43032059 2.8350003
-0.51198208 0.43990695 2.835
-0.50701135 0.43990695 2.835
1.1681145 0.44736299 2.835
1.1730852 0.44736299 2.835
-1.3536874 0.46614116 2.835
-1.3470597 0.45233369 2.835
0.76051712 0.47718722 2.835
0.79602212 0.47257155 2.8349998
0.82140815 0.47345918 2.835
0.85496038 0.47718719 2.835
0.91212344 0.47221649 2.835
0.95106065 0.47553027 2.835
0.97425717 0.46823993 2.835
1.0165081 0.46973115 2.835
1.0322487 0.45896131 2.835
1.1278521 0.46376625 2.8349996
1.1566437 0.46303982 2.8349998
1.1834409 0.46268934 2.8349998
1.2098684 0.46625167 2.835
-1.3598417 0.49612322 2.8349996
-1.0836126 0.50452602 2.835
-1.0753281 0.50121224 2.835
0.17894518 0.49707001 2.835
0.19385727 0.49900299 2.8349996
0.22439159 0.49920028 2.8350003
0.25599107 0.49872684 2.8349998
0.28581524 0.49458465 2.8349998
0.3131541 0.4937562 2.835
0.347949 0.48712865 2.835
0.37528786 0.49292776 2.835
0.40511203 0.49707001 2.835
0.44040403 0.49806413 2.835
0.46476048 0.50121224 2.835
0.49706998 0.49927917 2.835
0.52523726 0.50038385 2.835
0.55091923 0.49209929 2.835
0.58654261 0.48215789 2.835
0.61388147 0.48712867 2.835
0.64370567 0.48961398 2.8349998
0.67402691 0.48215792 2.835
0.70832473 0.48215789 2.835
0.74560499 0.48215789 2.835
0.77294385 0.48215789 2.835
0.78039992 0.48215789 2.835
0.84998971 0.48215789 2.835
0.93697691 0.48215789 2.835
-1.3570009 0.52161288 2.8349996
-1.3433317 0.53559291 2.835
0.17894518 0.51943815 2.835
-1.3566462 0.55813861 2.8349998
-1.3400555 0.55581456 2.8349996
-1.3619722 0.58228201 2.8349996
-1.3380387 0.58286059 2.8349993
-1.356007 0.61239022 2.8349998
-1.343236 0.6163668 2.8349998
-1.3545159 0.64370573 2.8349998
-1.3420888 0.64370567 2.8349996
-1.086098 0.64370567 2.835
-1.0761565 0.646191 2.835
-1.3545159 0.67352986 2.8349998
-1.3440007 0.67257392 2.8349998
-1.3621562 0.70620739 2.8349993
-1.3366212 0.70285696 2.8349996
-1.3601826 0.73188597 2.8349993
-1.3392485 0.73282313 2.8349996
0.6859566 0.72820753 2.835
0.69092733 0.73814893 2.835
0.77294385 0.73566359 2.835
0.78039992 0.73317826 2.835
-1.3570009 0.76300246 2.8349996
-1.3423812 0.76285619 2.8349996
0.6859566 0.76797318 2.835
0.69092733 0.76797312 2.835
-1.3562912 0.79140645 2.8349998
-1.3399277 0.79228628 2.8349996
0.68496245 0.79133546 2.835
0.69313651 0.78923672 2.835
0.77542919 0.79034132 2.835
-1.3563796 0.82389355 2.8349996
-1.3470597 0.82215375 2.835
-1.354707 0.8526662 2.8349998
-1.3470598 0.8549605 2.8350003
-1.3545159 0.88726997 2.8349998
-1.3470597 0.88677281 2.835
0.69341266 0.88229924 2.835
-1.3567086 0.91782516 2.8349996
-1.3454026 0.91957951 2.835
0.69258422 0.918751 2.835
-1.3586581 0.94360459 2.8349996
-1.3450712 0.9489066 2.8349998
0.69424123 0.94567573 2.8349998
-1.3547418 0.97967982 2.8349998
-1.3445742 0.97674251 2.8349998
0.695898 0.96431577 2.835
-1.3818547 1.0189935 2.835
-1.3633276 1.006115 2.8349996
-1.3445742 0.9966253 2.835
0.7058394 1.0189935 2.835
-1.3818547 1.0239642 2.835
-1.3649176 1.0364828 2.8349993
-1.3470597 1.0488176 2.835
0.70278054 1.030082 2.8349998
-1.3922932 1.0677065 2.8349996
-1.3609778 1.0691975 2.8349996
-1.341637 1.063278 2.8349998
0.68595666 1.0736712 2.835
0.69625312 1.0694107 2.8349998
-1.3855826 1.0848552 2.835
-1.3678633 1.0950265 2.8349993
0.70770329 1.0950036 2.8349996
0.72075146 1.1034955 2.835
0.76548779 1.1059806 2.835
-1.4578354 1.1311893 2.8350003
-1.4191349 1.1221355 2.835
-1.3896658 1.1272837 2.8349998
-1.3690354 1.1236398 2.8349996
0.70938987 1.1155671 2.8350003
0.7244795 1.1171649 2.835
0.76383084 1.1167506 2.835
-1.0945553 -1.1175549 2.859
-1.073451 -1.1250111 2.859
-1.0945551 -1.0958821 2.8590004
-1.0760769 -1.0902796 2.859
-1.0897783 -1.067722 2.8590002
-1.0752413 -1.0652158 2.8589997
-1.09207 -1.0351391 2.8590004
-1.0760769 -1.0354176 2.8589997
-1.0948603 -1.0063587 2.8590004
-1.0777478 -1.0050623 2.859
-1.094457 -0.97600663 2.8590004
-1.0777477 -0.97999847 2.859
-1.0988015 -0.94591153 2.8590002
-1.114717 -0.91044611 2.8589997
-1.1011407 -0.91328061 2.8590002
-1.0977989 -0.88475591 2.8590004
-1.0983267 -0.85665762 2.8590002
-1.0752413 -0.84214699 2.859
-1.0923302 -0.82574165 2.8589997
-1.0752413 -0.83713424 2.859
-1.1128372 -0.7845 2.859
-1.1001381 -0.79402429 2.859
-1.116346 -0.75993741 2.8589997
-1.1048167 -0.7664541 2.8589997
-1.1172234 -0.74251807 2.8589997
-1.1016977 -0.73130882 2.8590002
-1.0923684 -0.70408666 2.8590002
-1.0777477 -0.69928282 2.859
-1.0949343 -0.67624784 2.8590002
-1.1128372 -0.64163584 2.859
-1.0994029 -0.64243782 2.8590002
-1.1128372 -0.62409109 2.859
-1.0927861 -0.6165719 2.859
-1.096128 -0.58169138 2.8590002
-1.0970827 -0.55570245 2.859
-1.1007231 -0.52258229 2.8589997
-1.0966421 -0.49472287 2.8589997
-1.1128372 -0.45115018 2.859
-1.1028117 -0.46368212 2.8590002
-1.1153435 -0.43360543 2.8589997
-1.1005558 -0.43485871 2.8590002
-1.1135534 -0.40531906 2.859
-1.1028116 -0.40403005 2.859
-1.3359058 -0.36092013 2.859
-1.0982348 -0.37356108 2.8590002
-1.3584634 -0.35590738 2.859
-1.3340009 -0.34167105 2.8590002
-1.3102636 -0.33662742 2.8589997
-1.2832717 -0.35089463 2.859
-1.0984254 -0.34462863 2.859
-1.334235 -0.31580511 2.8589997
-1.3140644 -0.32225013 2.859
-1.0972977 -0.31229612 2.8590002
-1.3534505 -0.29074121 2.859
-1.3347667 -0.28390563 2.8590004
-1.3038596 -0.2834011 2.8590004
-1.2874489 -0.2798802 2.859
-1.097242 -0.28684241 2.8589997
-1.3305351 -0.25374213 2.8590002
-1.3083353 -0.25509483 2.8590004
-1.2882844 -0.26317096 2.859
-1.1128372 -0.24311982 2.859
-1.1019763 -0.2493858 2.8589997
-1.3298188 -0.22199449 2.8590002
-1.3115258 -0.22398008 2.8590004
-1.1140903 -0.23058787 2.859
-1.1031065 -0.22233152 2.859
-0.54138017 -0.21053675 2.859
-0.53636742 -0.21053675 2.859
-1.3301409 -0.1952478 2.8590002
-1.3183612 -0.19299202 2.859
-1.2657268 -0.19048563 2.859
-1.2521924 -0.19750352 2.859
-1.0980169 -0.19179332 2.8590002
-0.54338527 -0.19950865 2.859
-0.53636742 -0.20552397 2.859
-1.3303918 -0.15740129 2.859
-1.3070822 -0.16345243 2.8590004
-1.1128372 -0.16291535 2.859
-1.1009021 -0.16494431 2.8590002
-0.57646972 -0.15706711 2.8589997
-0.55351639 -0.15750684 2.8590002
-0.52383548 -0.15790258 2.8590002
-0.49877164 -0.15790257 2.859
-1.334699 -0.13404542 2.8590004
-1.3166902 -0.14369969 2.859
-1.1128372 -0.13534506 2.859
-1.1035278 -0.13427089 2.859
-0.66562557 -0.13140646 2.859
-0.64815247 -0.12882844 2.8590002
-0.61214882 -0.1253195 2.859
-0.5880782 -0.13534504 2.8590002
-0.55040318 -0.1318361 2.8590002
-0.52383548 -0.13283867 2.8590004
-0.49909851 -0.13316557 2.8590002
-1.3312199 -0.10221711 2.8590002
-1.3063304 -0.098250501 2.8590002
-1.279333 -0.095600881 2.859
-1.0969633 -0.10276198 2.8589997
-0.67111099 -0.099654034 2.8590002
-0.64491338 -0.10681079 2.8590004
-0.61625868 -0.11059444 2.859
-0.5873307 -0.11195209 2.859
-0.55290955 -0.10777477 2.8590002
-0.52226895 -0.11059447 2.859
-0.49325752 -0.10386477 2.8590002
-0.47454318 -0.091900967 2.859
-0.42357987 -0.096913747 2.859
-0.40798455 -0.10053408 2.8590002
-1.327384 -0.076695524 2.8589997
-1.3059962 -0.070680201 2.8590004
-1.2750508 -0.073988631 2.8590002
-1.2569546 -0.076444894 2.859
-1.1128372 -0.072685309 2.859
-1.100989 -0.071773887 2.8590004
-0.69945002 -0.066168696 2.859
-0.67807484 -0.074034892 2.8590004
-0.51130354 -0.060153358 2.859
-0.49125242 -0.070178919 2.8590004
-0.47231525 -0.079647496 2.8589997
-0.42708883 -0.073186584 2.8590002
-0.41016331 -0.076076306 2.859
-1.3025516 -0.044922225 2.8590004
-1.2761106 -0.04225057 2.8590004
-1.2557013 -0.04260863 2.859
-1.1128372 -0.055140581 2.859
-1.099118 -0.0432682 2.8590002
-0.72685307 -0.032583073 2.859
-0.70315641 -0.041925058 2.8590004
-0.67693412 -0.039893374 2.8590002
-0.65333229 -0.038431313 2.8589997
-0.51201963 -0.042250577 2.859
-0.4937588 -0.042608634 2.8590004
-0.47274372 -0.040873438 2.8589997
-0.42859268 -0.055140581 2.859
-1.3297234 -0.012364858 2.859
-1.3104463 -0.016093662 2.8590002
-1.2751025 -0.01503834 2.8590004
-1.2557013 -0.012531949 2.8589997
-1.1128372 -0.0050127795 2.859
-1.0961279 -0.013924389 2.8590004
-1.0777477 -0.0050127795 2.859
-0.73011136 -0.013283866 2.8590002
-0.70429569 -0.015038341 2.8590004
-0.67221373 -0.018046008 2.8590002
-0.64765126 -0.016040897 2.8590002
-0.51882273 -0.025063898 2.859
